1654.633762 1097.033076 -272.633355
1653.788452 1097.540262 -274.373531
1652.943141 1098.047448 -276.113707
1652.097831 1098.554635 -277.853883
1651.252521 1099.061821 -279.594059
1650.407210 1099.569007 -281.334235
1649.561900 1100.076193 -283.074411
1648.716590 1100.583380 -284.814587
1647.871279 1101.090566 -286.554763
1647.025969 1101.597752 -288.294939
1646.180659 1102.104938 -290.035115
1645.335348 1102.612124 -291.775291
1644.490038 1103.119311 -293.515467
1643.644727 1103.626497 -295.255643
1642.799417 1104.133683 -296.995819
1641.954107 1104.640869 -298.735995
1641.108796 1105.148055 -300.476171
1640.263486 1105.655242 -302.216347
1639.418176 1106.162428 -303.956523
1638.572865 1106.669614 -305.696699
1637.727555 1107.176800 -307.436875
1636.882245 1107.683987 -309.177051
1636.036934 1108.191173 -310.917227
1635.191624 1108.698359 -312.657403
1634.346314 1109.205545 -314.397579
1633.501003 1109.712731 -316.137755
1632.655693 1110.219918 -317.877931
1631.810383 1110.727104 -319.618107
1630.965072 1111.234290 -321.358283
1630.119762 1111.741476 -323.098459
1629.274451 1112.248662 -324.838635
1628.429141 1112.755849 -326.578811
1627.583831 1113.263035 -328.318987
1626.738520 1113.770221 -330.059163
1625.893210 1114.277407 -331.799340
1625.047900 1114.784594 -333.539516
1624.202589 1115.291780 -335.279692
1623.357279 1115.798966 -337.019868
1622.511969 1116.306152 -338.760044
1621.666658 1116.813338 -340.500220
1620.821348 1117.320525 -342.240396
1619.976038 1117.827711 -343.980572
1619.130727 1118.334897 -345.720748
1618.285417 1118.842083 -347.460924
1617.440107 1119.349269 -349.201100
1616.594796 1119.856456 -350.941276
1615.749486 1120.363642 -352.681452
1614.904175 1120.870828 -354.421628
1614.058865 1121.378014 -356.161804
1612.800000 1122.133333 -358.753333
1611.078847 1123.151975 -358.753333
1609.357693 1124.170617 -358.753333
1607.636540 1125.189259 -358.753333
1605.915387 1126.207900 -358.753333
1604.194233 1127.226542 -358.753333
1602.473080 1128.245184 -358.753333
1600.751926 1129.263826 -358.753333
1599.030773 1130.282468 -358.753333
1597.309620 1131.301109 -358.753333
1595.588466 1132.319751 -358.753333
1593.867313 1133.338393 -358.753333
1592.146160 1134.357035 -358.753333
1590.425006 1135.375677 -358.753333
1588.703853 1136.394318 -358.753333
1586.982700 1137.412960 -358.753333
1585.261546 1138.431602 -358.753333
1583.540393 1139.450244 -358.753333
1581.819239 1140.468886 -358.753333
1580.098086 1141.487527 -358.753333
1578.376933 1142.506169 -358.753333
1576.655779 1143.524811 -358.753333
1574.934626 1144.543453 -358.753333
1573.213473 1145.562094 -358.753333
1571.492319 1146.580736 -358.753333
1569.771166 1147.599378 -358.753333
1568.050012 1148.618020 -358.753333
1566.328859 1149.636662 -358.753333
1564.607706 1150.655303 -358.753333
1562.886552 1151.673945 -358.753333
1561.165399 1152.692587 -358.753333
1559.444246 1153.711229 -358.753333
1557.723092 1154.729871 -358.753333
1556.001939 1155.748512 -358.753333
1554.280786 1156.767154 -358.753333
1552.559632 1157.785796 -358.753333
1550.838479 1158.804438 -358.753333
1549.117325 1159.823079 -358.753333
1547.396172 1160.841721 -358.753333
1545.675019 1161.860363 -358.753333
1543.953865 1162.879005 -358.753333
1542.232712 1163.897647 -358.753333
1540.511559 1164.916288 -358.753333
1538.790405 1165.934930 -358.753333
1537.069252 1166.953572 -358.753333
1535.348099 1167.972214 -358.753333
1533.626945 1168.990856 -358.753333
1531.905792 1170.009497 -358.753333
1530.184638 1171.028139 -358.753333
1528.463485 1172.046781 -358.753333
1526.742332 1173.065423 -358.753333
1525.021178 1174.084065 -358.753333
1523.300025 1175.102706 -358.753333
1521.578872 1176.121348 -358.753333
1519.857718 1177.139990 -358.753333
1518.136565 1178.158632 -358.753333
1516.415412 1179.177273 -358.753333
1514.694258 1180.195915 -358.753333
1512.973105 1181.214557 -358.753333
1511.251951 1182.233199 -358.753333
1509.530798 1183.251841 -358.753333
1507.809645 1184.270482 -358.753333
1506.088491 1185.289124 -358.753333
1504.367338 1186.307766 -358.753333
1502.646185 1187.326408 -358.753333
1500.925031 1188.345050 -358.753333
1499.203878 1189.363691 -358.753333
1497.482725 1190.382333 -358.753333
1495.761571 1191.400975 -358.753333
1494.040418 1192.419617 -358.753333
1492.319264 1193.438258 -358.753333
1490.598111 1194.456900 -358.753333
1488.876958 1195.475542 -358.753333
1487.155804 1196.494184 -358.753333
1485.434651 1197.512826 -358.753333
1483.713498 1198.531467 -358.753333
1481.992344 1199.550109 -358.753333
1480.271191 1200.568751 -358.753333
1478.550037 1201.587393 -358.753333
1476.828884 1202.606035 -358.753333
1475.107731 1203.624676 -358.753333
1473.386577 1204.643318 -358.753333
1471.665424 1205.661960 -358.753333
1469.944271 1206.680602 -358.753333
1468.223117 1207.699244 -358.753333
1466.501964 1208.717885 -358.753333
1464.780811 1209.736527 -358.753333
1463.059657 1210.755169 -358.753333
1461.338504 1211.773811 -358.753333
1459.617350 1212.792452 -358.753333
1457.896197 1213.811094 -358.753333
1456.175044 1214.829736 -358.753333
1454.453890 1215.848378 -358.753333
1452.732737 1216.867020 -358.753333
1451.011584 1217.885661 -358.753333
1449.290430 1218.904303 -358.753333
1447.569277 1219.922945 -358.753333
1445.848124 1220.941587 -358.753333
1444.126970 1221.960229 -358.753333
1442.405817 1222.978870 -358.753333
1440.684663 1223.997512 -358.753333
1438.963510 1225.016154 -358.753333
1437.242357 1226.034796 -358.753333
1435.521203 1227.053437 -358.753333
1433.800050 1228.072079 -358.753333
1432.078897 1229.090721 -358.753333
1430.357743 1230.109363 -358.753333
1428.636590 1231.128005 -358.753333
1426.915437 1232.146646 -358.753333
1425.194283 1233.165288 -358.753333
1423.473130 1234.183930 -358.753333
1421.751976 1235.202572 -358.753333
1420.030823 1236.221214 -358.753333
1418.309670 1237.239855 -358.753333
1416.588516 1238.258497 -358.753333
1414.867363 1239.277139 -358.753333
1413.146210 1240.295781 -358.753333
1411.425056 1241.314423 -358.753333
1409.703903 1242.333064 -358.753333
1407.982749 1243.351706 -358.753333
1406.261596 1244.370348 -358.753333
1404.540443 1245.388990 -358.753333
1402.819289 1246.407631 -358.753333
1401.098136 1247.426273 -358.753333
1399.376983 1248.444915 -358.753333
1397.655829 1249.463557 -358.753333
1395.934676 1250.482199 -358.753333
1394.213523 1251.500840 -358.753333
1392.492369 1252.519482 -358.753333
1390.771216 1253.538124 -358.753333
1389.050062 1254.556766 -358.753333
1387.328909 1255.575408 -358.753333
1385.607756 1256.594049 -358.753333
1383.886602 1257.612691 -358.753333
1382.165449 1258.631333 -358.753333
1380.444296 1259.649975 -358.753333
1378.723142 1260.668616 -358.753333
1377.001989 1261.687258 -358.753333
1375.280836 1262.705900 -358.753333
1373.559682 1263.724542 -358.753333
1371.838529 1264.743184 -358.753333
1370.117375 1265.761825 -358.753333
1368.396222 1266.780467 -358.753333
1366.675069 1267.799109 -358.753333
1364.953915 1268.817751 -358.753333
1363.232762 1269.836393 -358.753333
1361.511609 1270.855034 -358.753333
1359.790455 1271.873676 -358.753333
1358.069302 1272.892318 -358.753333
1356.348149 1273.910960 -358.753333
1354.626995 1274.929602 -358.753333
1352.905842 1275.948243 -358.753333
1351.184688 1276.966885 -358.753333
1349.463535 1277.985527 -358.753333
1347.742382 1279.004169 -358.753333
1346.021228 1280.022810 -358.753333
1344.300075 1281.041452 -358.753333
1342.578922 1282.060094 -358.753333
1340.857768 1283.078736 -358.753333
1339.136615 1284.097378 -358.753333
1337.415461 1285.116019 -358.753333
1335.694308 1286.134661 -358.753333
1333.973155 1287.153303 -358.753333
1332.252001 1288.171945 -358.753333
1330.530848 1289.190587 -358.753333
1328.809695 1290.209228 -358.753333
1327.088541 1291.227870 -358.753333
1325.367388 1292.246512 -358.753333
1323.646235 1293.265154 -358.753333
1321.925081 1294.283795 -358.753333
1320.203928 1295.302437 -358.753333
1318.482774 1296.321079 -358.753333
1316.761621 1297.339721 -358.753333
1315.040468 1298.358363 -358.753333
1313.319314 1299.377004 -358.753333
1311.598161 1300.395646 -358.753333
1309.877008 1301.414288 -358.753333
1308.155854 1302.432930 -358.753333
1306.434701 1303.451572 -358.753333
1304.713548 1304.470213 -358.753333
1302.992394 1305.488855 -358.753333
1301.271241 1306.507497 -358.753333
1299.550087 1307.526139 -358.753333
1297.828934 1308.544781 -358.753333
1296.107781 1309.563422 -358.753333
1294.386627 1310.582064 -358.753333
1292.665474 1311.600706 -358.753333
1290.944321 1312.619348 -358.753333
1289.223167 1313.637989 -358.753333
1287.502014 1314.656631 -358.753333
1285.780861 1315.675273 -358.753333
1284.059707 1316.693915 -358.753333
1282.338554 1317.712557 -358.753333
1280.617400 1318.731198 -358.753333
1278.896247 1319.749840 -358.753333
1277.175094 1320.768482 -358.753333
1275.453940 1321.787124 -358.753333
1273.732787 1322.805766 -358.753333
1272.011634 1323.824407 -358.753333
1270.290480 1324.843049 -358.753333
1268.569327 1325.861691 -358.753333
1266.848174 1326.880333 -358.753333
1265.127020 1327.898974 -358.753333
1263.405867 1328.917616 -358.753333
1261.684713 1329.936258 -358.753333
1259.963560 1330.954900 -358.753333
1258.242407 1331.973542 -358.753333
1256.521253 1332.992183 -358.753333
1254.800100 1334.010825 -358.753333
1253.078947 1335.029467 -358.753333
1250.417778 1336.604444 -358.753333
1248.673881 1337.208765 -357.982866
1246.929984 1337.813086 -357.212399
1245.186087 1338.417407 -356.441931
1243.442190 1339.021727 -355.671464
1241.698293 1339.626048 -354.900996
1239.954396 1340.230369 -354.130529
1238.210499 1340.834689 -353.360062
1236.466602 1341.439010 -352.589594
1234.722706 1342.043331 -351.819127
1232.978809 1342.647652 -351.048659
1231.234912 1343.251972 -350.278192
1229.491015 1343.856293 -349.507724
1227.747118 1344.460614 -348.737257
1226.003221 1345.064934 -347.966790
1224.259324 1345.669255 -347.196322
1222.515427 1346.273576 -346.425855
1220.771530 1346.877897 -345.655387
1219.027633 1347.482217 -344.884920
1217.283736 1348.086538 -344.114453
1215.539839 1348.690859 -343.343985
1213.795943 1349.295179 -342.573518
1212.052046 1349.899500 -341.803050
1210.308149 1350.503821 -341.032583
1208.564252 1351.108142 -340.262116
1206.820355 1351.712462 -339.491648
1205.076458 1352.316783 -338.721181
1203.332561 1352.921104 -337.950713
1201.588664 1353.525424 -337.180246
1199.844767 1354.129745 -336.409779
1198.100870 1354.734066 -335.639311
1196.356973 1355.338387 -334.868844
1194.613076 1355.942707 -334.098376
1192.869180 1356.547028 -333.327909
1191.125283 1357.151349 -332.557442
1189.381386 1357.755669 -331.786974
1187.637489 1358.359990 -331.016507
1185.893592 1358.964311 -330.246039
1184.149695 1359.568632 -329.475572
1182.405798 1360.172952 -328.705105
1180.661901 1360.777273 -327.934637
1178.918004 1361.381594 -327.164170
1177.174107 1361.985914 -326.393702
1175.430210 1362.590235 -325.623235
1173.686313 1363.194556 -324.852768
1171.942417 1363.798877 -324.082300
1170.198520 1364.403197 -323.311833
1168.454623 1365.007518 -322.541365
1166.710726 1365.611839 -321.770898
1164.966829 1366.216159 -321.000431
1163.222932 1366.820480 -320.229963
1161.479035 1367.424801 -319.459496
1159.735138 1368.029122 -318.689028
1157.991241 1368.633442 -317.918561
1156.247344 1369.237763 -317.148094
1154.503447 1369.842084 -316.377626
1152.759550 1370.446404 -315.607159
1151.015654 1371.050725 -314.836691
1149.271757 1371.655046 -314.066224
1147.527860 1372.259367 -313.295756
1145.783963 1372.863687 -312.525289
1144.040066 1373.468008 -311.754822
1142.296169 1374.072329 -310.984354
1140.552272 1374.676649 -310.213887
1138.808375 1375.280970 -309.443419
1137.064478 1375.885291 -308.672952
1135.320581 1376.489612 -307.902485
1133.576684 1377.093932 -307.132017
1131.832787 1377.698253 -306.361550
1130.088891 1378.302574 -305.591082
1128.344994 1378.906894 -304.820615
1126.601097 1379.511215 -304.050148
1124.857200 1380.115536 -303.279680
1123.113303 1380.719857 -302.509213
1121.369406 1381.324177 -301.738745
1119.625509 1381.928498 -300.968278
1117.881612 1382.532819 -300.197811
1116.137715 1383.137139 -299.427343
1114.393818 1383.741460 -298.656876
1112.649921 1384.345781 -297.886408
1110.906024 1384.950102 -297.115941
1109.162128 1385.554422 -296.345474
1107.418231 1386.158743 -295.575006
1105.674334 1386.763064 -294.804539
1103.930437 1387.367384 -294.034071
1102.186540 1387.971705 -293.263604
1100.442643 1388.576026 -292.493137
1098.698746 1389.180347 -291.722669
1096.954849 1389.784667 -290.952202
1095.210952 1390.388988 -290.181734
1093.467055 1390.993309 -289.411267
1091.723158 1391.597629 -288.640800
1089.979261 1392.201950 -287.870332
1088.235365 1392.806271 -287.099865
1086.491468 1393.410592 -286.329397
1084.747571 1394.014912 -285.558930
1083.003674 1394.619233 -284.788463
1081.259777 1395.223554 -284.017995
1079.515880 1395.827874 -283.247528
1077.771983 1396.432195 -282.477060
1076.028086 1397.036516 -281.706593
1074.284189 1397.640837 -280.936126
1072.540292 1398.245157 -280.165658
1070.796395 1398.849478 -279.395191
1069.052498 1399.453799 -278.624723
1067.308602 1400.058119 -277.854256
1065.564705 1400.662440 -277.083788
1063.820808 1401.266761 -276.313321
1062.076911 1401.871082 -275.542854
1060.333014 1402.475402 -274.772386
1058.589117 1403.079723 -274.001919
1056.845220 1403.684044 -273.231451
1055.101323 1404.288364 -272.460984
1053.357426 1404.892685 -271.690517
1051.613529 1405.497006 -270.920049
1049.869632 1406.101327 -270.149582
1048.125736 1406.705647 -269.379114
1046.381839 1407.309968 -268.608647
1044.637942 1407.914289 -267.838180
1042.894045 1408.518609 -267.067712
1041.150148 1409.122930 -266.297245
1039.406251 1409.727251 -265.526777
1037.662354 1410.331571 -264.756310
1035.918457 1410.935892 -263.985843
1034.174560 1411.540213 -263.215375
1032.430663 1412.144534 -262.444908
1030.686766 1412.748854 -261.674440
1028.942869 1413.353175 -260.903973
1027.198973 1413.957496 -260.133506
1025.455076 1414.561816 -259.363038
1023.711179 1415.166137 -258.592571
1021.967282 1415.770458 -257.822103
1020.223385 1416.374779 -257.051636
1018.479488 1416.979099 -256.281169
1016.735591 1417.583420 -255.510701
1014.991694 1418.187741 -254.740234
1013.247797 1418.792061 -253.969766
1011.503900 1419.396382 -253.199299
1009.760003 1420.000703 -252.428832
1008.016106 1420.605024 -251.658364
1006.272210 1421.209344 -250.887897
1004.528313 1421.813665 -250.117429
1002.784416 1422.417986 -249.346962
1001.040519 1423.022306 -248.576495
999.296622 1423.626627 -247.806027
997.552725 1424.230948 -247.035560
995.808828 1424.835269 -246.265092
994.064931 1425.439589 -245.494625
992.321034 1426.043910 -244.724158
990.577137 1426.648231 -243.953690
988.833240 1427.252551 -243.183223
987.089343 1427.856872 -242.412755
985.345447 1428.461193 -241.642288
983.601550 1429.065514 -240.871820
981.857653 1429.669834 -240.101353
980.113756 1430.274155 -239.330886
978.369859 1430.878476 -238.560418
976.625962 1431.482796 -237.789951
974.882065 1432.087117 -237.019483
973.138168 1432.691438 -236.249016
971.394271 1433.295759 -235.478549
969.650374 1433.900079 -234.708081
967.906477 1434.504400 -233.937614
966.162580 1435.108721 -233.167146
964.418684 1435.713041 -232.396679
962.674787 1436.317362 -231.626212
960.930890 1436.921683 -230.855744
959.186993 1437.526004 -230.085277
957.443096 1438.130324 -229.314809
955.699199 1438.734645 -228.544342
953.955302 1439.338966 -227.773875
952.211405 1439.943286 -227.003407
950.467508 1440.547607 -226.232940
948.723611 1441.151928 -225.462472
946.979714 1441.756249 -224.692005
945.235817 1442.360569 -223.921538
943.491921 1442.964890 -223.151070
941.748024 1443.569211 -222.380603
940.004127 1444.173531 -221.610135
938.260230 1444.777852 -220.839668
936.516333 1445.382173 -220.069201
934.772436 1445.986494 -219.298733
933.028539 1446.590814 -218.528266
931.284642 1447.195135 -217.757798
929.540745 1447.799456 -216.987331
927.796848 1448.403776 -216.216864
926.052951 1449.008097 -215.446396
924.309054 1449.612418 -214.675929
922.565158 1450.216739 -213.905461
920.821261 1450.821059 -213.134994
919.077364 1451.425380 -212.364527
917.333467 1452.029701 -211.594059
915.589570 1452.634021 -210.823592
913.845673 1453.238342 -210.053124
912.101776 1453.842663 -209.282657
910.357879 1454.446984 -208.512190
908.613982 1455.051304 -207.741722
906.870085 1455.655625 -206.971255
905.126188 1456.259946 -206.200787
903.382291 1456.864266 -205.430320
901.638395 1457.468587 -204.659852
899.894498 1458.072908 -203.889385
898.150601 1458.677229 -203.118918
896.406704 1459.281549 -202.348450
894.662807 1459.885870 -201.577983
892.918910 1460.490191 -200.807515
891.175013 1461.094511 -200.037048
889.431116 1461.698832 -199.266581
887.687219 1462.303153 -198.496113
885.943322 1462.907474 -197.725646
884.199425 1463.511794 -196.955178
882.455528 1464.116115 -196.184711
880.711632 1464.720436 -195.414244
878.967735 1465.324756 -194.643776
877.223838 1465.929077 -193.873309
875.479941 1466.533398 -193.102841
873.736044 1467.137719 -192.332374
871.992147 1467.742039 -191.561907
870.248250 1468.346360 -190.791439
868.504353 1468.950681 -190.020972
866.760456 1469.555001 -189.250504
865.016559 1470.159322 -188.480037
863.272662 1470.763643 -187.709570
861.528765 1471.367964 -186.939102
859.784869 1471.972284 -186.168635
858.040972 1472.576605 -185.398167
856.297075 1473.180926 -184.627700
854.553178 1473.785246 -183.857233
852.809281 1474.389567 -183.086765
851.065384 1474.993888 -182.316298
849.321487 1475.598209 -181.545830
847.577590 1476.202529 -180.775363
845.833693 1476.806850 -180.004896
844.089796 1477.411171 -179.234428
842.345899 1478.015491 -178.463961
840.602002 1478.619812 -177.693493
838.858106 1479.224133 -176.923026
837.114209 1479.828454 -176.152559
835.370312 1480.432774 -175.382091
833.626415 1481.037095 -174.611624
831.882518 1481.641416 -173.841156
830.138621 1482.245736 -173.070689
828.394724 1482.850057 -172.300222
826.650827 1483.454378 -171.529754
824.906930 1484.058699 -170.759287
823.163033 1484.663019 -169.988819
821.419136 1485.267340 -169.218352
819.675239 1485.871661 -168.447884
817.931343 1486.475981 -167.677417
816.187446 1487.080302 -166.906950
814.443549 1487.684623 -166.136482
812.699652 1488.288944 -165.366015
810.955755 1488.893264 -164.595547
809.211858 1489.497585 -163.825080
807.467961 1490.101906 -163.054613
805.724064 1490.706226 -162.284145
803.980167 1491.310547 -161.513678
802.236270 1491.914868 -160.743210
800.492373 1492.519189 -159.972743
798.748476 1493.123509 -159.202276
797.004580 1493.727830 -158.431808
795.260683 1494.332151 -157.661341
793.516786 1494.936471 -156.890873
791.772889 1495.540792 -156.120406
790.028992 1496.145113 -155.349939
788.285095 1496.749434 -154.579471
786.541198 1497.353754 -153.809004
784.797301 1497.958075 -153.038536
783.053404 1498.562396 -152.268069
781.309507 1499.166716 -151.497602
779.565610 1499.771037 -150.727134
777.821713 1500.375358 -149.956667
776.077817 1500.979679 -149.186199
774.333920 1501.583999 -148.415732
772.590023 1502.188320 -147.645265
770.846126 1502.792641 -146.874797
769.102229 1503.396961 -146.104330
767.358332 1504.001282 -145.333862
765.614435 1504.605603 -144.563395
763.870538 1505.209924 -143.792928
762.126641 1505.814244 -143.022460
760.382744 1506.418565 -142.251993
758.638847 1507.022886 -141.481525
756.894950 1507.627206 -140.711058
755.151054 1508.231527 -139.940591
753.407157 1508.835848 -139.170123
751.663260 1509.440169 -138.399656
749.919363 1510.044489 -137.629188
748.175466 1510.648810 -136.858721
746.431569 1511.253131 -136.088254
744.687672 1511.857451 -135.317786
742.943775 1512.461772 -134.547319
741.199878 1513.066093 -133.776851
739.455981 1513.670414 -133.006384
737.712084 1514.274734 -132.235916
735.968188 1514.879055 -131.465449
734.224291 1515.483376 -130.694982
732.480394 1516.087696 -129.924514
730.736497 1516.692017 -129.154047
728.992600 1517.296338 -128.383579
727.248703 1517.900659 -127.613112
725.504806 1518.504979 -126.842645
723.760909 1519.109300 -126.072177
722.017012 1519.713621 -125.301710
720.273115 1520.317941 -124.531242
718.529218 1520.922262 -123.760775
716.785321 1521.526583 -122.990308
715.041425 1522.130903 -122.219840
713.297528 1522.735224 -121.449373
711.553631 1523.339545 -120.678905
709.809734 1523.943866 -119.908438
708.065837 1524.548186 -119.137971
706.321940 1525.152507 -118.367503
704.578043 1525.756828 -117.597036
702.834146 1526.361148 -116.826568
701.090249 1526.965469 -116.056101
699.346352 1527.569790 -115.285634
697.602455 1528.174111 -114.515166
695.858558 1528.778431 -113.744699
694.114662 1529.382752 -112.974231
692.370765 1529.987073 -112.203764
690.626868 1530.591393 -111.433297
688.882971 1531.195714 -110.662829
687.139074 1531.800035 -109.892362
685.395177 1532.404356 -109.121894
683.651280 1533.008676 -108.351427
681.907383 1533.612997 -107.580960
680.163486 1534.217318 -106.810492
678.419589 1534.821638 -106.040025
676.675692 1535.425959 -105.269557
674.931795 1536.030280 -104.499090
673.187899 1536.634601 -103.728623
671.444002 1537.238921 -102.958155
669.700105 1537.843242 -102.187688
667.956208 1538.447563 -101.417220
666.212311 1539.051883 -100.646753
664.468414 1539.656204 -99.876286
662.724517 1540.260525 -99.105818
660.980620 1540.864846 -98.335351
659.236723 1541.469166 -97.564883
657.492826 1542.073487 -96.794416
655.748929 1542.677808 -96.023948
654.005032 1543.282128 -95.253481
652.261136 1543.886449 -94.483014
650.517239 1544.490770 -93.712546
648.773342 1545.095091 -92.942079
647.029445 1545.699411 -92.171611
645.285548 1546.303732 -91.401144
643.541651 1546.908053 -90.630677
641.797754 1547.512373 -89.860209
640.053857 1548.116694 -89.089742
638.309960 1548.721015 -88.319274
636.566063 1549.325336 -87.548807
634.822166 1549.929656 -86.778340
633.078269 1550.533977 -86.007872
631.334373 1551.138298 -85.237405
629.590476 1551.742618 -84.466937
627.846579 1552.346939 -83.696470
626.102682 1552.951260 -82.926003
624.358785 1553.555581 -82.155535
622.614888 1554.159901 -81.385068
620.870991 1554.764222 -80.614600
619.127094 1555.368543 -79.844133
617.383197 1555.972863 -79.073666
615.639300 1556.577184 -78.303198
613.895403 1557.181505 -77.532731
612.151506 1557.785826 -76.762263
610.407610 1558.390146 -75.991796
608.663713 1558.994467 -75.221329
606.919816 1559.598788 -74.450861
605.175919 1560.203108 -73.680394
603.432022 1560.807429 -72.909926
601.688125 1561.411750 -72.139459
599.944228 1562.016071 -71.368992
598.200331 1562.620391 -70.598524
596.456434 1563.224712 -69.828057
594.712537 1563.829033 -69.057589
592.968640 1564.433353 -68.287122
591.224743 1565.037674 -67.516655
589.480847 1565.641995 -66.746187
587.736950 1566.246316 -65.975720
585.993053 1566.850636 -65.205252
584.249156 1567.454957 -64.434785
582.505259 1568.059278 -63.664318
580.761362 1568.663598 -62.893850
579.017465 1569.267919 -62.123383
577.273568 1569.872240 -61.352915
575.529671 1570.476561 -60.582448
573.785774 1571.080881 -59.811981
572.041877 1571.685202 -59.041513
570.297980 1572.289523 -58.271046
568.554084 1572.893843 -57.500578
566.810187 1573.498164 -56.730111
565.066290 1574.102485 -55.959643
563.322393 1574.706806 -55.189176
561.578496 1575.311126 -54.418709
559.834599 1575.915447 -53.648241
558.090702 1576.519768 -52.877774
556.346805 1577.124088 -52.107306
554.602908 1577.728409 -51.336839
552.859011 1578.332730 -50.566372
551.115114 1578.937051 -49.795904
549.371217 1579.541371 -49.025437
547.627321 1580.145692 -48.254969
545.883424 1580.750013 -47.484502
544.139527 1581.354333 -46.714035
542.395630 1581.958654 -45.943567
540.651733 1582.562975 -45.173100
538.907836 1583.167296 -44.402632
537.163939 1583.771616 -43.632165
535.420042 1584.375937 -42.861698
533.676145 1584.980258 -42.091230
531.932248 1585.584578 -41.320763
530.188351 1586.188899 -40.550295
528.444454 1586.793220 -39.779828
526.700558 1587.397541 -39.009361
524.956661 1588.001861 -38.238893
523.212764 1588.606182 -37.468426
521.468867 1589.210503 -36.697958
519.724970 1589.814823 -35.927491
517.981073 1590.419144 -35.157024
516.237176 1591.023465 -34.386556
514.493279 1591.627786 -33.616089
512.749382 1592.232106 -32.845621
511.005485 1592.836427 -32.075154
509.261588 1593.440748 -31.304687
507.517691 1594.045068 -30.534219
505.773795 1594.649389 -29.763752
503.466667 1595.448889 -28.744444
501.938136 1594.159085 -28.744444
500.409606 1592.869281 -28.744444
498.881075 1591.579477 -28.744444
497.352544 1590.289673 -28.744444
495.824014 1588.999869 -28.744444
494.295483 1587.710065 -28.744444
492.766953 1586.420261 -28.744444
491.238422 1585.130457 -28.744444
489.709892 1583.840653 -28.744444
488.181361 1582.550849 -28.744444
486.652831 1581.261045 -28.744444
485.124300 1579.971241 -28.744444
483.595769 1578.681437 -28.744444
482.067239 1577.391633 -28.744444
480.538708 1576.101829 -28.744444
479.010178 1574.812025 -28.744444
477.481647 1573.522221 -28.744444
475.953117 1572.232417 -28.744444
474.424586 1570.942613 -28.744444
472.896056 1569.652809 -28.744444
471.367525 1568.363005 -28.744444
469.838994 1567.073201 -28.744444
468.310464 1565.783397 -28.744444
466.781933 1564.493593 -28.744444
465.253403 1563.203789 -28.744444
463.724872 1561.913985 -28.744444
462.196342 1560.624181 -28.744444
460.667811 1559.334377 -28.744444
459.139281 1558.044573 -28.744444
457.610750 1556.754769 -28.744444
456.082219 1555.464965 -28.744444
454.553689 1554.175161 -28.744444
453.025158 1552.885357 -28.744444
451.496628 1551.595553 -28.744444
449.968097 1550.305749 -28.744444
448.439567 1549.015945 -28.744444
446.911036 1547.726141 -28.744444
445.382506 1546.436337 -28.744444
443.853975 1545.146533 -28.744444
442.325444 1543.856729 -28.744444
440.796914 1542.566925 -28.744444
439.268383 1541.277121 -28.744444
437.739853 1539.987317 -28.744444
436.211322 1538.697513 -28.744444
434.682792 1537.407709 -28.744444
433.154261 1536.117905 -28.744444
431.625731 1534.828101 -28.744444
430.097200 1533.538297 -28.744444
428.568669 1532.248493 -28.744444
427.040139 1530.958689 -28.744444
425.511608 1529.668885 -28.744444
423.983078 1528.379081 -28.744444
422.454547 1527.089277 -28.744444
420.926017 1525.799473 -28.744444
419.397486 1524.509669 -28.744444
417.868955 1523.219865 -28.744444
416.340425 1521.930061 -28.744444
414.811894 1520.640257 -28.744444
413.283364 1519.350453 -28.744444
411.754833 1518.060649 -28.744444
410.226303 1516.770845 -28.744444
408.697772 1515.481041 -28.744444
407.169242 1514.191237 -28.744444
405.640711 1512.901433 -28.744444
404.112180 1511.611629 -28.744444
402.583650 1510.321825 -28.744444
401.055119 1509.032021 -28.744444
399.526589 1507.742217 -28.744444
397.998058 1506.452413 -28.744444
396.469528 1505.162609 -28.744444
394.940997 1503.872805 -28.744444
393.412467 1502.583001 -28.744444
391.883936 1501.293197 -28.744444
390.355405 1500.003393 -28.744444
388.826875 1498.713590 -28.744444
387.298344 1497.423786 -28.744444
385.769814 1496.133982 -28.744444
384.241283 1494.844178 -28.744444
382.712753 1493.554374 -28.744444
381.184222 1492.264570 -28.744444
379.655692 1490.974766 -28.744444
378.127161 1489.684962 -28.744444
376.598630 1488.395158 -28.744444
375.070100 1487.105354 -28.744444
373.541569 1485.815550 -28.744444
372.013039 1484.525746 -28.744444
370.484508 1483.235942 -28.744444
368.955978 1481.946138 -28.744444
367.427447 1480.656334 -28.744444
365.898917 1479.366530 -28.744444
364.370386 1478.076726 -28.744444
362.841855 1476.786922 -28.744444
361.313325 1475.497118 -28.744444
359.784794 1474.207314 -28.744444
358.256264 1472.917510 -28.744444
356.727733 1471.627706 -28.744444
355.199203 1470.337902 -28.744444
353.670672 1469.048098 -28.744444
352.142142 1467.758294 -28.744444
350.613611 1466.468490 -28.744444
349.085080 1465.178686 -28.744444
347.556550 1463.888882 -28.744444
346.028019 1462.599078 -28.744444
344.499489 1461.309274 -28.744444
342.970958 1460.019470 -28.744444
341.442428 1458.729666 -28.744444
339.913897 1457.439862 -28.744444
338.385367 1456.150058 -28.744444
336.856836 1454.860254 -28.744444
335.328305 1453.570450 -28.744444
333.799775 1452.280646 -28.744444
332.271244 1450.990842 -28.744444
330.742714 1449.701038 -28.744444
329.214183 1448.411234 -28.744444
327.685653 1447.121430 -28.744444
326.157122 1445.831626 -28.744444
324.628592 1444.541822 -28.744444
323.100061 1443.252018 -28.744444
321.571530 1441.962214 -28.744444
320.043000 1440.672410 -28.744444
318.514469 1439.382606 -28.744444
316.985939 1438.092802 -28.744444
315.457408 1436.802998 -28.744444
313.928878 1435.513194 -28.744444
312.400347 1434.223390 -28.744444
310.871817 1432.933586 -28.744444
309.343286 1431.643782 -28.744444
307.814755 1430.353978 -28.744444
306.286225 1429.064174 -28.744444
304.757694 1427.774370 -28.744444
303.229164 1426.484566 -28.744444
301.700633 1425.194762 -28.744444
300.172103 1423.904958 -28.744444
298.643572 1422.615154 -28.744444
297.115042 1421.325350 -28.744444
295.586511 1420.035546 -28.744444
294.057980 1418.745742 -28.744444
292.529450 1417.455938 -28.744444
291.000919 1416.166134 -28.744444
289.472389 1414.876330 -28.744444
287.943858 1413.586526 -28.744444
286.415328 1412.296722 -28.744444
284.886797 1411.006918 -28.744444
283.358266 1409.717114 -28.744444
281.829736 1408.427310 -28.744444
280.301205 1407.137506 -28.744444
278.772675 1405.847702 -28.744444
277.244144 1404.557898 -28.744444
275.715614 1403.268094 -28.744444
274.187083 1401.978290 -28.744444
272.658553 1400.688486 -28.744444
271.130022 1399.398682 -28.744444
269.601491 1398.108878 -28.744444
268.072961 1396.819074 -28.744444
266.544430 1395.529270 -28.744444
265.015900 1394.239466 -28.744444
263.487369 1392.949662 -28.744444
261.958839 1391.659858 -28.744444
260.430308 1390.370054 -28.744444
258.901778 1389.080250 -28.744444
257.373247 1387.790446 -28.744444
255.844716 1386.500642 -28.744444
254.316186 1385.210838 -28.744444
252.787655 1383.921034 -28.744444
251.259125 1382.631230 -28.744444
249.730594 1381.341426 -28.744444
248.202064 1380.051622 -28.744444
246.673533 1378.761818 -28.744444
245.145003 1377.472014 -28.744444
243.616472 1376.182210 -28.744444
242.087941 1374.892406 -28.744444
240.559411 1373.602602 -28.744444
239.030880 1372.312798 -28.744444
237.502350 1371.022994 -28.744444
235.973819 1369.733190 -28.744444
234.445289 1368.443386 -28.744444
232.916758 1367.153582 -28.744444
231.388228 1365.863778 -28.744444
229.859697 1364.573974 -28.744444
228.331166 1363.284170 -28.744444
226.802636 1361.994366 -28.744444
225.274105 1360.704562 -28.744444
223.745575 1359.414758 -28.744444
222.217044 1358.124954 -28.744444
220.688514 1356.835150 -28.744444
219.159983 1355.545346 -28.744444
217.631453 1354.255542 -28.744444
216.102922 1352.965738 -28.744444
214.574391 1351.675934 -28.744444
213.045861 1350.386130 -28.744444
211.517330 1349.096326 -28.744444
209.988800 1347.806522 -28.744444
208.460269 1346.516718 -28.744444
206.931739 1345.226914 -28.744444
205.403208 1343.937110 -28.744444
203.874678 1342.647307 -28.744444
202.346147 1341.357503 -28.744444
200.817616 1340.067699 -28.744444
199.289086 1338.777895 -28.744444
197.760555 1337.488091 -28.744444
196.232025 1336.198287 -28.744444
194.703494 1334.908483 -28.744444
193.174964 1333.618679 -28.744444
191.646433 1332.328875 -28.744444
190.117903 1331.039071 -28.744444
188.589372 1329.749267 -28.744444
187.060841 1328.459463 -28.744444
185.532311 1327.169659 -28.744444
184.003780 1325.879855 -28.744444
182.475250 1324.590051 -28.744444
180.946719 1323.300247 -28.744444
179.418189 1322.010443 -28.744444
177.889658 1320.720639 -28.744444
176.361128 1319.430835 -28.744444
174.832597 1318.141031 -28.744444
173.304066 1316.851227 -28.744444
171.775536 1315.561423 -28.744444
170.247005 1314.271619 -28.744444
168.718475 1312.981815 -28.744444
167.189944 1311.692011 -28.744444
165.661414 1310.402207 -28.744444
164.132883 1309.112403 -28.744444
162.604353 1307.822599 -28.744444
161.075822 1306.532795 -28.744444
159.547291 1305.242991 -28.744444
158.018761 1303.953187 -28.744444
156.490230 1302.663383 -28.744444
154.961700 1301.373579 -28.744444
153.433169 1300.083775 -28.744444
151.904639 1298.793971 -28.744444
150.376108 1297.504167 -28.744444
148.847578 1296.214363 -28.744444
147.319047 1294.924559 -28.744444
145.790516 1293.634755 -28.744444
144.261986 1292.344951 -28.744444
142.733455 1291.055147 -28.744444
141.204925 1289.765343 -28.744444
139.676394 1288.475539 -28.744444
138.147864 1287.185735 -28.744444
136.619333 1285.895931 -28.744444
135.090802 1284.606127 -28.744444
133.562272 1283.316323 -28.744444
132.033741 1282.026519 -28.744444
130.505211 1280.736715 -28.744444
128.976680 1279.446911 -28.744444
127.448150 1278.157107 -28.744444
125.919619 1276.867303 -28.744444
124.391089 1275.577499 -28.744444
122.862558 1274.287695 -28.744444
121.334027 1272.997891 -28.744444
119.805497 1271.708087 -28.744444
118.276966 1270.418283 -28.744444
116.748436 1269.128479 -28.744444
115.219905 1267.838675 -28.744444
113.691375 1266.548871 -28.744444
112.162844 1265.259067 -28.744444
110.634314 1263.969263 -28.744444
109.105783 1262.679459 -28.744444
107.577252 1261.389655 -28.744444
106.048722 1260.099851 -28.744444
104.520191 1258.810047 -28.744444
102.991661 1257.520243 -28.744444
101.463130 1256.230439 -28.744444
99.934600 1254.940635 -28.744444
98.406069 1253.650831 -28.744444
96.877539 1252.361027 -28.744444
95.349008 1251.071223 -28.744444
93.820477 1249.781419 -28.744444
92.291947 1248.491615 -28.744444
90.763416 1247.201811 -28.744444
89.234886 1245.912007 -28.744444
87.706355 1244.622203 -28.744444
86.177825 1243.332399 -28.744444
84.649294 1242.042595 -28.744444
83.120764 1240.752791 -28.744444
81.592233 1239.462987 -28.744444
80.063702 1238.173183 -28.744444
78.535172 1236.883379 -28.744444
77.006641 1235.593575 -28.744444
75.478111 1234.303771 -28.744444
73.949580 1233.013967 -28.744444
72.421050 1231.724163 -28.744444
70.892519 1230.434359 -28.744444
69.363989 1229.144555 -28.744444
67.835458 1227.854751 -28.744444
66.306927 1226.564947 -28.744444
64.778397 1225.275143 -28.744444
63.249866 1223.985339 -28.744444
61.721336 1222.695535 -28.744444
60.192805 1221.405731 -28.744444
58.664275 1220.115927 -28.744444
57.135744 1218.826123 -28.744444
55.607214 1217.536319 -28.744444
54.078683 1216.246515 -28.744444
52.550152 1214.956711 -28.744444
51.021622 1213.666907 -28.744444
49.493091 1212.377103 -28.744444
47.964561 1211.087299 -28.744444
46.436030 1209.797495 -28.744444
44.907500 1208.507691 -28.744444
43.378969 1207.217887 -28.744444
41.850439 1205.928083 -28.744444
40.321908 1204.638279 -28.744444
38.793377 1203.348475 -28.744444
37.264847 1202.058671 -28.744444
35.736316 1200.768867 -28.744444
34.207786 1199.479063 -28.744444
32.679255 1198.189259 -28.744444
31.150725 1196.899455 -28.744444
29.622194 1195.609651 -28.744444
28.093664 1194.319847 -28.744444
26.565133 1193.030043 -28.744444
25.036602 1191.740239 -28.744444
23.508072 1190.450435 -28.744444
21.979541 1189.160631 -28.744444
20.451011 1187.870827 -28.744444
18.922480 1186.581024 -28.744444
17.393950 1185.291220 -28.744444
15.865419 1184.001416 -28.744444
14.336889 1182.711612 -28.744444
12.808358 1181.421808 -28.744444
11.279827 1180.132004 -28.744444
9.751297 1178.842200 -28.744444
8.222766 1177.552396 -28.744444
6.694236 1176.262592 -28.744444
5.165705 1174.972788 -28.744444
3.637175 1173.682984 -28.744444
2.108644 1172.393180 -28.744444
0.580114 1171.103376 -28.744444
-0.948417 1169.813572 -28.744444
-2.476948 1168.523768 -28.744444
-4.005478 1167.233964 -28.744444
-5.534009 1165.944160 -28.744444
-7.062539 1164.654356 -28.744444
-8.591070 1163.364552 -28.744444
-10.119600 1162.074748 -28.744444
-11.648131 1160.784944 -28.744444
-13.176662 1159.495140 -28.744444
-14.705192 1158.205336 -28.744444
-16.233723 1156.915532 -28.744444
-17.762253 1155.625728 -28.744444
-19.290784 1154.335924 -28.744444
-20.819314 1153.046120 -28.744444
-22.347845 1151.756316 -28.744444
-23.876375 1150.466512 -28.744444
-25.404906 1149.176708 -28.744444
-26.933437 1147.886904 -28.744444
-28.461967 1146.597100 -28.744444
-29.990498 1145.307296 -28.744444
-31.519028 1144.017492 -28.744444
-33.047559 1142.727688 -28.744444
-34.576089 1141.437884 -28.744444
-36.104620 1140.148080 -28.744444
-37.633150 1138.858276 -28.744444
-39.161681 1137.568472 -28.744444
-40.690212 1136.278668 -28.744444
-42.218742 1134.988864 -28.744444
-43.747273 1133.699060 -28.744444
-45.275803 1132.409256 -28.744444
-46.804334 1131.119452 -28.744444
-48.332864 1129.829648 -28.744444
-49.861395 1128.539844 -28.744444
-51.389925 1127.250040 -28.744444
-52.918456 1125.960236 -28.744444
-54.446987 1124.670432 -28.744444
-55.975517 1123.380628 -28.744444
-57.504048 1122.090824 -28.744444
-59.032578 1120.801020 -28.744444
-60.561109 1119.511216 -28.744444
-62.089639 1118.221412 -28.744444
-63.618170 1116.931608 -28.744444
-65.146700 1115.641804 -28.744444
-66.675231 1114.352000 -28.744444
-68.203762 1113.062196 -28.744444
-69.732292 1111.772392 -28.744444
-71.260823 1110.482588 -28.744444
-72.789353 1109.192784 -28.744444
-74.317884 1107.902980 -28.744444
-75.846414 1106.613176 -28.744444
-77.374945 1105.323372 -28.744444
-78.903475 1104.033568 -28.744444
-80.432006 1102.743764 -28.744444
-81.960537 1101.453960 -28.744444
-83.489067 1100.164156 -28.744444
-85.017598 1098.874352 -28.744444
-86.546128 1097.584548 -28.744444
-88.074659 1096.294744 -28.744444
-89.603189 1095.004940 -28.744444
-91.131720 1093.715136 -28.744444
-92.660250 1092.425332 -28.744444
-94.188781 1091.135528 -28.744444
-95.717312 1089.845724 -28.744444
-97.245842 1088.555920 -28.744444
-98.774373 1087.266116 -28.744444
-100.302903 1085.976312 -28.744444
-101.831434 1084.686508 -28.744444
-103.359964 1083.396704 -28.744444
-104.888495 1082.106900 -28.744444
-106.417025 1080.817096 -28.744444
-107.945556 1079.527292 -28.744444
-109.474087 1078.237488 -28.744444
-111.002617 1076.947684 -28.744444
-112.531148 1075.657880 -28.744444
-114.059678 1074.368076 -28.744444
-115.588209 1073.078272 -28.744444
-117.116739 1071.788468 -28.744444
-118.645270 1070.498664 -28.744444
-120.173800 1069.208860 -28.744444
-121.702331 1067.919056 -28.744444
-123.230862 1066.629252 -28.744444
-124.759392 1065.339448 -28.744444
-126.287923 1064.049644 -28.744444
-127.816453 1062.759840 -28.744444
-129.344984 1061.470036 -28.744444
-130.873514 1060.180232 -28.744444
-132.402045 1058.890428 -28.744444
-133.930575 1057.600624 -28.744444
-135.459106 1056.310820 -28.744444
-136.987637 1055.021016 -28.744444
-138.516167 1053.731212 -28.744444
-140.044698 1052.441408 -28.744444
-141.573228 1051.151604 -28.744444
-143.101759 1049.861800 -28.744444
-144.630289 1048.571996 -28.744444
-146.158820 1047.282192 -28.744444
-147.687351 1045.992388 -28.744444
-149.215881 1044.702584 -28.744444
-150.744412 1043.412780 -28.744444
-152.272942 1042.122976 -28.744444
-153.801473 1040.833172 -28.744444
-155.330003 1039.543368 -28.744444
-156.858534 1038.253564 -28.744444
-158.387064 1036.963760 -28.744444
-159.915595 1035.673956 -28.744444
-161.444126 1034.384152 -28.744444
-162.972656 1033.094348 -28.744444
-164.501187 1031.804544 -28.744444
-166.029717 1030.514741 -28.744444
-167.558248 1029.224937 -28.744444
-169.086778 1027.935133 -28.744444
-170.615309 1026.645329 -28.744444
-172.143839 1025.355525 -28.744444
-173.672370 1024.065721 -28.744444
-175.200901 1022.775917 -28.744444
-176.729431 1021.486113 -28.744444
-178.257962 1020.196309 -28.744444
-179.786492 1018.906505 -28.744444
-181.315023 1017.616701 -28.744444
-182.843553 1016.326897 -28.744444
-184.372084 1015.037093 -28.744444
-185.900614 1013.747289 -28.744444
-187.429145 1012.457485 -28.744444
-188.957676 1011.167681 -28.744444
-190.486206 1009.877877 -28.744444
-192.014737 1008.588073 -28.744444
-193.543267 1007.298269 -28.744444
-195.071798 1006.008465 -28.744444
-196.600328 1004.718661 -28.744444
-198.128859 1003.428857 -28.744444
-199.657389 1002.139053 -28.744444
-201.185920 1000.849249 -28.744444
-202.714451 999.559445 -28.744444
-204.242981 998.269641 -28.744444
-205.771512 996.979837 -28.744444
-207.300042 995.690033 -28.744444
-208.828573 994.400229 -28.744444
-210.357103 993.110425 -28.744444
-211.885634 991.820621 -28.744444
-213.414164 990.530817 -28.744444
-214.942695 989.241013 -28.744444
-216.471226 987.951209 -28.744444
-217.999756 986.661405 -28.744444
-219.528287 985.371601 -28.744444
-221.056817 984.081797 -28.744444
-222.585348 982.791993 -28.744444
-224.113878 981.502189 -28.744444
-225.642409 980.212385 -28.744444
-227.170939 978.922581 -28.744444
-228.699470 977.632777 -28.744444
-230.228001 976.342973 -28.744444
-231.756531 975.053169 -28.744444
-233.285062 973.763365 -28.744444
-234.813592 972.473561 -28.744444
-236.342123 971.183757 -28.744444
-237.870653 969.893953 -28.744444
-239.399184 968.604149 -28.744444
-240.927714 967.314345 -28.744444
-242.456245 966.024541 -28.744444
-243.984776 964.734737 -28.744444
-245.513306 963.444933 -28.744444
-247.041837 962.155129 -28.744444
-248.570367 960.865325 -28.744444
-250.098898 959.575521 -28.744444
-251.627428 958.285717 -28.744444
-253.155959 956.995913 -28.744444
-254.684489 955.706109 -28.744444
-256.213020 954.416305 -28.744444
-257.741551 953.126501 -28.744444
-259.270081 951.836697 -28.744444
-260.798612 950.546893 -28.744444
-262.327142 949.257089 -28.744444
-263.855673 947.967285 -28.744444
-265.384203 946.677481 -28.744444
-266.912734 945.387677 -28.744444
-268.441264 944.097873 -28.744444
-269.969795 942.808069 -28.744444
-271.498326 941.518265 -28.744444
-273.026856 940.228461 -28.744444
-274.555387 938.938657 -28.744444
-276.083917 937.648853 -28.744444
-277.612448 936.359049 -28.744444
-279.140978 935.069245 -28.744444
-280.669509 933.779441 -28.744444
-282.198039 932.489637 -28.744444
-283.726570 931.199833 -28.744444
-285.255101 929.910029 -28.744444
-286.783631 928.620225 -28.744444
-288.312162 927.330421 -28.744444
-289.840692 926.040617 -28.744444
-291.369223 924.750813 -28.744444
-292.897753 923.461009 -28.744444
-294.426284 922.171205 -28.744444
-295.954815 920.881401 -28.744444
-297.483345 919.591597 -28.744444
-299.011876 918.301793 -28.744444
-300.540406 917.011989 -28.744444
-302.068937 915.722185 -28.744444
-303.597467 914.432381 -28.744444
-305.125998 913.142577 -28.744444
-306.654528 911.852773 -28.744444
-308.183059 910.562969 -28.744444
-309.711590 909.273165 -28.744444
-311.240120 907.983361 -28.744444
-312.768651 906.693557 -28.744444
-314.297181 905.403753 -28.744444
-315.825712 904.113949 -28.744444
-317.354242 902.824145 -28.744444
-318.882773 901.534341 -28.744444
-320.411303 900.244537 -28.744444
-321.939834 898.954733 -28.744444
-323.468365 897.664929 -28.744444
-324.996895 896.375125 -28.744444
-326.525426 895.085321 -28.744444
-328.053956 893.795517 -28.744444
-329.582487 892.505713 -28.744444
-331.111017 891.215909 -28.744444
-332.639548 889.926105 -28.744444
-334.168078 888.636301 -28.744444
-335.696609 887.346497 -28.744444
-337.225140 886.056693 -28.744444
-338.753670 884.766889 -28.744444
-340.282201 883.477085 -28.744444
-341.810731 882.187281 -28.744444
-343.339262 880.897477 -28.744444
-344.867792 879.607673 -28.744444
-346.396323 878.317869 -28.744444
-347.924853 877.028065 -28.744444
-349.453384 875.738261 -28.744444
-350.981915 874.448458 -28.744444
-352.510445 873.158654 -28.744444
-354.038976 871.868850 -28.744444
-355.567506 870.579046 -28.744444
-357.096037 869.289242 -28.744444
-358.624567 867.999438 -28.744444
-360.153098 866.709634 -28.744444
-361.681628 865.419830 -28.744444
-363.210159 864.130026 -28.744444
-364.738690 862.840222 -28.744444
-366.267220 861.550418 -28.744444
-367.795751 860.260614 -28.744444
-369.324281 858.970810 -28.744444
-370.852812 857.681006 -28.744444
-372.381342 856.391202 -28.744444
-373.909873 855.101398 -28.744444
-375.438403 853.811594 -28.744444
-376.966934 852.521790 -28.744444
-378.495465 851.231986 -28.744444
-380.023995 849.942182 -28.744444
-381.552526 848.652378 -28.744444
-383.081056 847.362574 -28.744444
-384.609587 846.072770 -28.744444
-386.138117 844.782966 -28.744444
-387.666648 843.493162 -28.744444
-389.195178 842.203358 -28.744444
-390.723709 840.913554 -28.744444
-392.252240 839.623750 -28.744444
-393.780770 838.333946 -28.744444
-395.309301 837.044142 -28.744444
-396.837831 835.754338 -28.744444
-398.366362 834.464534 -28.744444
-399.894892 833.174730 -28.744444
-401.423423 831.884926 -28.744444
-402.951953 830.595122 -28.744444
-404.480484 829.305318 -28.744444
-406.009015 828.015514 -28.744444
-407.537545 826.725710 -28.744444
-409.066076 825.435906 -28.744444
-410.594606 824.146102 -28.744444
-412.123137 822.856298 -28.744444
-413.651667 821.566494 -28.744444
-415.180198 820.276690 -28.744444
-416.708728 818.986886 -28.744444
-418.237259 817.697082 -28.744444
-419.765790 816.407278 -28.744444
-421.294320 815.117474 -28.744444
-422.822851 813.827670 -28.744444
-424.351381 812.537866 -28.744444
-425.879912 811.248062 -28.744444
-427.408442 809.958258 -28.744444
-428.936973 808.668454 -28.744444
-430.465503 807.378650 -28.744444
-431.994034 806.088846 -28.744444
-433.522565 804.799042 -28.744444
-435.051095 803.509238 -28.744444
-436.579626 802.219434 -28.744444
-438.108156 800.929630 -28.744444
-439.636687 799.639826 -28.744444
-441.165217 798.350022 -28.744444
-442.693748 797.060218 -28.744444
-444.222279 795.770414 -28.744444
-445.750809 794.480610 -28.744444
-447.279340 793.190806 -28.744444
-448.807870 791.901002 -28.744444
-450.336401 790.611198 -28.744444
-451.864931 789.321394 -28.744444
-453.393462 788.031590 -28.744444
-454.921992 786.741786 -28.744444
-456.450523 785.451982 -28.744444
-457.979054 784.162178 -28.744444
-459.507584 782.872374 -28.744444
-461.036115 781.582570 -28.744444
-462.564645 780.292766 -28.744444
-464.093176 779.002962 -28.744444
-465.621706 777.713158 -28.744444
-467.150237 776.423354 -28.744444
-468.678767 775.133550 -28.744444
-470.207298 773.843746 -28.744444
-471.735829 772.553942 -28.744444
-473.264359 771.264138 -28.744444
-474.792890 769.974334 -28.744444
-476.321420 768.684530 -28.744444
-477.849951 767.394726 -28.744444
-479.378481 766.104922 -28.744444
-480.907012 764.815118 -28.744444
-482.435542 763.525314 -28.744444
-483.964073 762.235510 -28.744444
-485.492604 760.945706 -28.744444
-487.021134 759.655902 -28.744444
-488.549665 758.366098 -28.744444
-490.078195 757.076294 -28.744444
-491.606726 755.786490 -28.744444
-493.135256 754.496686 -28.744444
-494.663787 753.206882 -28.744444
-496.192317 751.917078 -28.744444
-497.720848 750.627274 -28.744444
-499.249379 749.337470 -28.744444
-500.777909 748.047666 -28.744444
-502.306440 746.757862 -28.744444
-503.834970 745.468058 -28.744444
-505.363501 744.178254 -28.744444
-506.892031 742.888450 -28.744444
-508.420562 741.598646 -28.744444
-509.949092 740.308842 -28.744444
-511.477623 739.019038 -28.744444
-513.006154 737.729234 -28.744444
-514.534684 736.439430 -28.744444
-516.063215 735.149626 -28.744444
-517.591745 733.859822 -28.744444
-519.120276 732.570018 -28.744444
-520.648806 731.280214 -28.744444
-522.177337 729.990410 -28.744444
-523.705867 728.700606 -28.744444
-525.234398 727.410802 -28.744444
-526.762929 726.120998 -28.744444
-528.291459 724.831194 -28.744444
-529.819990 723.541390 -28.744444
-531.348520 722.251586 -28.744444
-532.877051 720.961782 -28.744444
-534.405581 719.671978 -28.744444
-535.934112 718.382174 -28.744444
-537.462642 717.092371 -28.744444
-538.991173 715.802567 -28.744444
-540.519704 714.512763 -28.744444
-542.048234 713.222959 -28.744444
-543.576765 711.933155 -28.744444
-545.105295 710.643351 -28.744444
-546.633826 709.353547 -28.744444
-548.162356 708.063743 -28.744444
-549.690887 706.773939 -28.744444
-551.219417 705.484135 -28.744444
-552.747948 704.194331 -28.744444
-554.276479 702.904527 -28.744444
-555.805009 701.614723 -28.744444
-557.333540 700.324919 -28.744444
