-1648.000000 376.255981 300.881406
-1648.000000 374.280239 301.191959
-1648.000000 372.304497 301.502511
-1648.000000 370.328755 301.813064
-1648.000000 368.353013 302.123617
-1648.000000 366.377271 302.434170
-1648.000000 364.401529 302.744722
-1648.000000 362.425786 303.055275
-1648.000000 360.450044 303.365828
-1648.000000 358.474302 303.676381
-1648.000000 356.498560 303.986933
-1648.000000 354.522818 304.297486
-1648.000000 352.547076 304.608039
-1648.000000 350.571334 304.918592
-1648.000000 348.595591 305.229144
-1648.000000 346.619849 305.539697
-1648.000000 344.644107 305.850250
-1648.000000 342.668365 306.160803
-1648.000000 340.692623 306.471355
-1648.000000 338.716881 306.781908
-1648.000000 336.741139 307.092461
-1648.000000 334.765396 307.403014
-1648.000000 332.789654 307.713566
-1648.000000 330.813912 308.024119
-1648.000000 328.838170 308.334672
-1648.000000 326.862428 308.645225
-1648.000000 324.886686 308.955777
-1648.000000 322.910944 309.266330
-1648.000000 320.935202 309.576883
-1648.000000 318.959459 309.887436
-1648.000000 316.983717 310.197988
-1648.000000 315.007975 310.508541
-1648.000000 313.032233 310.819094
-1648.000000 311.056491 311.129647
-1648.000000 309.080749 311.440199
-1648.000000 307.105007 311.750752
-1648.000000 305.129264 312.061305
-1648.000000 303.153522 312.371858
-1648.000000 301.177780 312.682410
-1648.000000 299.202038 312.992963
-1648.000000 297.226296 313.303516
-1648.000000 295.250554 313.614069
-1648.000000 293.274812 313.924621
-1648.000000 291.299069 314.235174
-1648.000000 289.323327 314.545727
-1648.000000 287.347585 314.856280
-1648.000000 285.371843 315.166833
-1648.000000 283.396101 315.477385
-1648.000000 281.420359 315.787938
-1648.000000 279.444617 316.098491
-1648.000000 277.468875 316.409044
-1648.000000 275.493132 316.719596
-1648.000000 273.517390 317.030149
-1648.000000 271.541648 317.340702
-1648.000000 269.565906 317.651255
-1648.000000 267.590164 317.961807
-1648.000000 265.614422 318.272360
-1648.000000 263.638680 318.582913
-1648.000000 261.662937 318.893466
-1648.000000 259.687195 319.204018
-1648.000000 257.711453 319.514571
-1648.000000 255.735711 319.825124
-1648.000000 253.759969 320.135677
-1648.000000 251.784227 320.446229
-1648.000000 249.808485 320.756782
-1648.000000 247.832742 321.067335
-1648.000000 245.857000 321.377888
-1648.000000 243.881258 321.688440
-1648.000000 241.905516 321.998993
-1648.000000 239.929774 322.309546
-1648.000000 237.954032 322.620099
-1648.000000 235.978290 322.930651
-1648.000000 234.002548 323.241204
-1648.000000 232.026805 323.551757
-1648.000000 230.051063 323.862310
-1648.000000 228.075321 324.172862
-1648.000000 226.099579 324.483415
-1648.000000 224.123837 324.793968
-1648.000000 222.148095 325.104521
-1648.000000 220.172353 325.415073
-1648.000000 218.196610 325.725626
-1648.000000 216.220868 326.036179
-1648.000000 214.245126 326.346732
-1648.000000 212.269384 326.657284
-1648.000000 210.293642 326.967837
-1648.000000 208.317900 327.278390
-1648.000000 206.342158 327.588943
-1648.000000 204.366416 327.899495
-1648.000000 202.390673 328.210048
-1648.000000 200.414931 328.520601
-1648.000000 198.439189 328.831154
-1648.000000 196.463447 329.141706
-1648.000000 194.487705 329.452259
-1648.000000 192.511963 329.762812
-1648.000000 190.536221 330.073365
-1648.000000 188.560478 330.383917
-1648.000000 186.584736 330.694470
-1648.000000 184.608994 331.005023
-1648.000000 182.633252 331.315576
-1648.000000 180.657510 331.626128
-1648.000000 178.681768 331.936681
-1648.000000 176.706026 332.247234
-1648.000000 174.730283 332.557787
-1648.000000 172.754541 332.868339
-1648.000000 170.778799 333.178892
-1648.000000 168.803057 333.489445
-1648.000000 166.827315 333.799998
-1648.000000 164.851573 334.110550
-1648.000000 162.875831 334.421103
-1648.000000 160.900089 334.731656
-1648.000000 158.924346 335.042209
-1648.000000 156.948604 335.352761
-1648.000000 154.972862 335.663314
-1648.000000 152.997120 335.973867
-1648.000000 151.021378 336.284420
-1648.000000 149.045636 336.594972
-1648.000000 147.069894 336.905525
-1648.000000 145.094151 337.216078
-1648.000000 143.118409 337.526631
-1648.000000 141.142667 337.837183
-1648.000000 139.166925 338.147736
-1648.000000 137.191183 338.458289
-1648.000000 135.215441 338.768842
-1648.000000 133.239699 339.079394
-1648.000000 131.263956 339.389947
-1648.000000 129.288214 339.700500
-1648.000000 127.312472 340.011053
-1648.000000 125.336730 340.321605
-1648.000000 123.360988 340.632158
-1648.000000 121.385246 340.942711
-1648.000000 119.409504 341.253264
-1648.000000 117.433762 341.563816
-1648.000000 115.458019 341.874369
-1648.000000 113.482277 342.184922
-1648.000000 111.506535 342.495475
-1648.000000 109.530793 342.806027
-1648.000000 107.555051 343.116580
-1648.000000 105.579309 343.427133
-1648.000000 103.603567 343.737686
-1648.000000 101.627824 344.048238
-1648.000000 99.652082 344.358791
-1648.000000 97.676340 344.669344
-1648.000000 95.700598 344.979897
-1648.000000 93.724856 345.290449
-1648.000000 91.749114 345.601002
-1648.000000 89.773372 345.911555
-1648.000000 87.797629 346.222108
-1648.000000 85.821887 346.532660
-1648.000000 83.846145 346.843213
-1648.000000 81.870403 347.153766
-1648.000000 79.894661 347.464319
-1648.000000 77.918919 347.774871
-1648.000000 75.943177 348.085424
-1648.000000 73.967435 348.395977
-1648.000000 71.991692 348.706530
-1648.000000 70.015950 349.017082
-1648.000000 68.040208 349.327635
-1648.000000 66.064466 349.638188
-1648.000000 64.088724 349.948741
-1648.000000 62.112982 350.259293
-1648.000000 60.137240 350.569846
-1648.000000 58.161497 350.880399
-1648.000000 56.185755 351.190952
-1648.000000 54.210013 351.501504
-1648.000000 52.234271 351.812057
-1648.000000 50.258529 352.122610
-1648.000000 48.282787 352.433163
-1648.000000 46.307045 352.743715
-1648.000000 44.331302 353.054268
-1648.000000 42.355560 353.364821
-1648.000000 40.379818 353.675374
-1648.000000 38.404076 353.985926
-1648.000000 36.428334 354.296479
-1648.000000 34.452592 354.607032
-1648.000000 32.476850 354.917585
-1648.000000 30.501108 355.228137
-1648.000000 28.525365 355.538690
-1648.000000 26.549623 355.849243
-1648.000000 24.573881 356.159796
-1648.000000 22.598139 356.470348
-1648.000000 20.622397 356.780901
-1648.000000 18.646655 357.091454
-1648.000000 16.670913 357.402007
-1648.000000 14.695170 357.712559
-1648.000000 12.719428 358.023112
-1648.000000 10.743686 358.333665
-1648.000000 8.767944 358.644218
-1648.000000 6.792202 358.954771
-1648.000000 4.816460 359.265323
-1648.000000 2.840718 359.575876
-1648.000000 0.864975 359.886429
-1648.000000 -1.110767 360.196982
-1648.000000 -3.086509 360.507534
-1648.000000 -5.062251 360.818087
-1648.000000 -7.037993 361.128640
-1648.000000 -9.013735 361.439193
-1648.000000 -10.989477 361.749745
-1648.000000 -12.965219 362.060298
-1648.000000 -14.940962 362.370851
-1648.000000 -16.916704 362.681404
-1648.000000 -18.892446 362.991956
-1648.000000 -20.868188 363.302509
-1648.000000 -22.843930 363.613062
-1648.000000 -24.819672 363.923615
-1648.000000 -26.795414 364.234167
-1648.000000 -28.771157 364.544720
-1648.000000 -30.746899 364.855273
-1648.000000 -32.722641 365.165826
-1648.000000 -34.698383 365.476378
-1648.000000 -36.674125 365.786931
-1648.000000 -38.649867 366.097484
-1648.000000 -40.625609 366.408037
-1648.000000 -42.601352 366.718589
-1648.000000 -44.577094 367.029142
-1648.000000 -46.552836 367.339695
-1648.000000 -48.528578 367.650248
-1648.000000 -50.504320 367.960800
-1648.000000 -52.480062 368.271353
-1648.000000 -54.455804 368.581906
-1648.000000 -56.431546 368.892459
-1648.000000 -58.407289 369.203011
-1648.000000 -60.383031 369.513564
-1648.000000 -62.358773 369.824117
-1648.000000 -64.334515 370.134670
-1648.000000 -66.310257 370.445222
-1648.000000 -68.285999 370.755775
-1648.000000 -70.261741 371.066328
-1648.000000 -72.237484 371.376881
-1648.000000 -74.213226 371.687433
-1648.000000 -76.188968 371.997986
-1648.000000 -78.164710 372.308539
-1648.000000 -80.140452 372.619092
-1648.000000 -82.116194 372.929644
-1648.000000 -84.091936 373.240197
-1648.000000 -86.067679 373.550750
-1648.000000 -88.043421 373.861303
-1648.000000 -90.019163 374.171855
-1648.000000 -91.994905 374.482408
-1648.000000 -93.970647 374.792961
-1648.000000 -95.946389 375.103514
-1648.000000 -97.922131 375.414066
-1648.000000 -99.897873 375.724619
-1648.000000 -101.873616 376.035172
-1648.000000 -103.849358 376.345725
-1648.000000 -105.825100 376.656277
-1648.000000 -107.800842 376.966830
-1648.000000 -109.776584 377.277383
-1648.000000 -111.752326 377.587936
-1648.000000 -113.728068 377.898488
-1648.000000 -115.703811 378.209041
-1648.000000 -117.679553 378.519594
-1648.000000 -119.655295 378.830147
-1648.000000 -121.631037 379.140699
-1648.000000 -123.606779 379.451252
-1648.000000 -125.582521 379.761805
-1648.000000 -127.558263 380.072358
-1648.000000 -129.534005 380.382910
-1648.000000 -131.509748 380.693463
-1648.000000 -133.485490 381.004016
-1648.000000 -135.461232 381.314569
-1648.000000 -137.436974 381.625121
-1648.000000 -139.412716 381.935674
-1648.000000 -141.388458 382.246227
-1648.000000 -143.364200 382.556780
-1648.000000 -145.339943 382.867332
-1648.000000 -147.315685 383.177885
-1648.000000 -149.291427 383.488438
-1648.000000 -151.267169 383.798991
-1648.000000 -153.242911 384.109543
-1648.000000 -155.218653 384.420096
-1648.000000 -157.194395 384.730649
-1648.000000 -159.170138 385.041202
-1648.000000 -161.145880 385.351754
-1648.000000 -163.121622 385.662307
-1648.000000 -165.097364 385.972860
-1648.000000 -167.073106 386.283413
-1648.000000 -169.048848 386.593965
-1648.000000 -171.024590 386.904518
-1648.000000 -173.000332 387.215071
-1648.000000 -174.976075 387.525624
-1648.000000 -176.951817 387.836176
-1648.000000 -178.927559 388.146729
-1648.000000 -180.903301 388.457282
-1648.000000 -182.879043 388.767835
-1648.000000 -184.854785 389.078387
-1648.000000 -186.830527 389.388940
-1648.000000 -188.806270 389.699493
-1648.000000 -190.782012 390.010046
-1648.000000 -192.757754 390.320598
-1648.000000 -194.733496 390.631151
-1648.000000 -196.709238 390.941704
-1648.000000 -198.684980 391.252257
-1648.000000 -200.660722 391.562809
-1648.000000 -202.636465 391.873362
-1648.000000 -204.612207 392.183915
-1648.000000 -206.587949 392.494468
-1648.000000 -208.563691 392.805020
-1648.000000 -210.539433 393.115573
-1648.000000 -212.515175 393.426126
-1648.000000 -214.490917 393.736679
-1648.000000 -216.466659 394.047231
-1648.000000 -218.442402 394.357784
-1648.000000 -220.418144 394.668337
-1648.000000 -222.393886 394.978890
-1648.000000 -224.369628 395.289442
-1648.000000 -226.345370 395.599995
-1648.000000 -228.321112 395.910548
-1648.000000 -230.296854 396.221101
-1648.000000 -232.272597 396.531653
-1648.000000 -234.248339 396.842206
-1648.000000 -236.224081 397.152759
-1648.000000 -238.199823 397.463312
-1648.000000 -240.175565 397.773864
-1648.000000 -242.151307 398.084417
-1648.000000 -244.127049 398.394970
-1648.000000 -246.102792 398.705523
-1648.000000 -248.078534 399.016075
-1648.000000 -250.054276 399.326628
-1648.000000 -252.030018 399.637181
-1648.000000 -254.005760 399.947734
-1648.000000 -255.981502 400.258286
-1648.000000 -257.957244 400.568839
-1648.000000 -259.932986 400.879392
-1648.000000 -261.908729 401.189945
-1648.000000 -263.884471 401.500498
-1648.000000 -265.860213 401.811050
-1648.000000 -267.835955 402.121603
-1648.000000 -269.811697 402.432156
-1648.000000 -271.787439 402.742709
-1648.000000 -273.763181 403.053261
-1648.000000 -275.738924 403.363814
-1648.000000 -277.714666 403.674367
-1648.000000 -279.690408 403.984920
-1648.000000 -281.666150 404.295472
-1648.000000 -283.641892 404.606025
-1648.000000 -285.617634 404.916578
-1648.000000 -287.593376 405.227131
-1648.000000 -289.569119 405.537683
-1648.000000 -291.544861 405.848236
-1648.000000 -293.520603 406.158789
-1648.000000 -295.496345 406.469342
-1648.000000 -297.472087 406.779894
-1648.000000 -299.447829 407.090447
-1648.000000 -301.423571 407.401000
-1648.000000 -303.399313 407.711553
-1648.000000 -305.375056 408.022105
-1648.000000 -307.350798 408.332658
-1648.000000 -309.326540 408.643211
-1648.000000 -311.302282 408.953764
-1648.000000 -313.278024 409.264316
-1648.000000 -315.253766 409.574869
-1648.000000 -317.229508 409.885422
-1648.000000 -319.205251 410.195975
-1648.000000 -321.180993 410.506527
-1648.000000 -323.156735 410.817080
-1648.000000 -325.132477 411.127633
-1648.000000 -327.108219 411.438186
-1648.000000 -329.083961 411.748738
-1648.000000 -331.059703 412.059291
-1648.000000 -333.035446 412.369844
-1648.000000 -335.011188 412.680397
-1648.000000 -336.986930 412.990949
-1648.000000 -338.962672 413.301502
-1648.000000 -340.938414 413.612055
-1648.000000 -342.914156 413.922608
-1648.000000 -344.889898 414.233160
-1648.000000 -346.865640 414.543713
-1648.000000 -348.841383 414.854266
-1648.000000 -350.817125 415.164819
-1648.000000 -352.792867 415.475371
-1648.000000 -354.768609 415.785924
-1648.000000 -356.744351 416.096477
-1648.000000 -358.720093 416.407030
-1648.000000 -360.695835 416.717582
-1648.000000 -362.671578 417.028135
-1648.000000 -364.647320 417.338688
-1648.000000 -366.623062 417.649241
-1648.000000 -368.598804 417.959793
-1648.000000 -370.574546 418.270346
-1648.000000 -372.550288 418.580899
-1648.000000 -374.526030 418.891452
-1648.000000 -376.501773 419.202004
-1648.000000 -378.477515 419.512557
-1648.000000 -380.453257 419.823110
-1648.000000 -382.428999 420.133663
-1648.000000 -384.404741 420.444215
-1648.000000 -386.380483 420.754768
-1648.000000 -388.356225 421.065321
-1648.000000 -390.331967 421.375874
-1648.000000 -392.307710 421.686426
-1648.000000 -394.283452 421.996979
-1648.000000 -396.259194 422.307532
-1648.000000 -398.234936 422.618085
-1648.000000 -400.210678 422.928637
-1648.000000 -402.186420 423.239190
-1648.000000 -404.162162 423.549743
-1648.000000 -406.137905 423.860296
-1648.000000 -408.113647 424.170848
-1648.000000 -410.089389 424.481401
-1648.000000 -412.065131 424.791954
-1648.000000 -414.040873 425.102507
-1648.000000 -416.016615 425.413059
-1648.000000 -417.992357 425.723612
-1648.000000 -419.968100 426.034165
-1648.000000 -421.943842 426.344718
-1648.000000 -423.919584 426.655270
-1648.000000 -425.895326 426.965823
-1648.000000 -427.871068 427.276376
-1648.000000 -429.846810 427.586929
-1648.000000 -431.822552 427.897481
-1648.000000 -433.798294 428.208034
-1648.000000 -435.774037 428.518587
-1648.000000 -437.749779 428.829140
-1648.000000 -439.725521 429.139692
-1648.000000 -441.701263 429.450245
-1648.000000 -443.677005 429.760798
-1648.000000 -445.652747 430.071351
-1648.000000 -447.628489 430.381903
-1648.000000 -449.604232 430.692456
-1648.000000 -451.579974 431.003009
-1648.000000 -453.555716 431.313562
-1648.000000 -455.531458 431.624114
-1648.000000 -457.507200 431.934667
-1648.000000 -459.482942 432.245220
-1648.000000 -461.458684 432.555773
-1648.000000 -463.434426 432.866325
-1648.000000 -465.410169 433.176878
-1648.000000 -467.385911 433.487431
-1648.000000 -469.361653 433.797984
-1648.000000 -471.337395 434.108536
-1648.000000 -473.313137 434.419089
-1648.000000 -475.288879 434.729642
-1648.000000 -477.264621 435.040195
-1648.000000 -479.240364 435.350747
-1648.000000 -481.216106 435.661300
-1648.000000 -483.191848 435.971853
-1648.000000 -485.167590 436.282406
-1648.000000 -487.143332 436.592958
-1648.000000 -489.119074 436.903511
-1648.000000 -491.094816 437.214064
-1648.000000 -493.070559 437.524617
-1648.000000 -495.046301 437.835169
-1648.000000 -497.022043 438.145722
-1648.000000 -498.997785 438.456275
-1648.000000 -500.973527 438.766828
-1648.000000 -502.949269 439.077380
-1648.000000 -504.925011 439.387933
-1648.000000 -506.900753 439.698486
-1648.000000 -508.876496 440.009039
-1648.000000 -512.000000 440.500000
-1648.888867 -513.791623 440.500000
-1649.777735 -515.583247 440.500000
-1650.666602 -517.374870 440.500000
-1651.555470 -519.166494 440.500000
-1652.444337 -520.958117 440.500000
-1653.333205 -522.749741 440.500000
-1654.222072 -524.541364 440.500000
-1655.110940 -526.332988 440.500000
-1655.999807 -528.124611 440.500000
-1656.888675 -529.916235 440.500000
-1657.777542 -531.707858 440.500000
-1658.666409 -533.499482 440.500000
-1659.555277 -535.291105 440.500000
-1660.444144 -537.082729 440.500000
-1661.333012 -538.874352 440.500000
-1662.221879 -540.665975 440.500000
-1663.110747 -542.457599 440.500000
-1663.999614 -544.249222 440.500000
-1664.888482 -546.040846 440.500000
-1665.777349 -547.832469 440.500000
-1666.666217 -549.624093 440.500000
-1667.555084 -551.415716 440.500000
-1668.443951 -553.207340 440.500000
-1669.332819 -554.998963 440.500000
-1670.221686 -556.790587 440.500000
-1671.110554 -558.582210 440.500000
-1671.999421 -560.373834 440.500000
-1672.888289 -562.165457 440.500000
-1673.777156 -563.957081 440.500000
-1674.666024 -565.748704 440.500000
-1675.554891 -567.540327 440.500000
-1676.443759 -569.331951 440.500000
-1677.332626 -571.123574 440.500000
-1678.221494 -572.915198 440.500000
-1679.110361 -574.706821 440.500000
-1679.999228 -576.498445 440.500000
-1680.888096 -578.290068 440.500000
-1681.776963 -580.081692 440.500000
-1682.665831 -581.873315 440.500000
-1683.554698 -583.664939 440.500000
-1684.443566 -585.456562 440.500000
-1685.332433 -587.248186 440.500000
-1686.221301 -589.039809 440.500000
-1687.110168 -590.831433 440.500000
-1687.999036 -592.623056 440.500000
-1688.887903 -594.414679 440.500000
-1689.776770 -596.206303 440.500000
-1690.665638 -597.997926 440.500000
-1691.554505 -599.789550 440.500000
-1692.443373 -601.581173 440.500000
-1693.332240 -603.372797 440.500000
-1694.221108 -605.164420 440.500000
-1695.109975 -606.956044 440.500000
-1695.998843 -608.747667 440.500000
-1696.887710 -610.539291 440.500000
-1697.776578 -612.330914 440.500000
-1698.665445 -614.122538 440.500000
-1699.554312 -615.914161 440.500000
-1700.443180 -617.705785 440.500000
-1701.332047 -619.497408 440.500000
-1702.220915 -621.289031 440.500000
-1703.109782 -623.080655 440.500000
-1703.998650 -624.872278 440.500000
-1704.887517 -626.663902 440.500000
-1705.776385 -628.455525 440.500000
-1706.665252 -630.247149 440.500000
-1707.554120 -632.038772 440.500000
-1708.442987 -633.830396 440.500000
-1709.331854 -635.622019 440.500000
-1710.220722 -637.413643 440.500000
-1711.109589 -639.205266 440.500000
-1711.998457 -640.996890 440.500000
-1712.887324 -642.788513 440.500000
-1713.776192 -644.580137 440.500000
-1714.665059 -646.371760 440.500000
-1715.553927 -648.163383 440.500000
-1716.442794 -649.955007 440.500000
-1717.331662 -651.746630 440.500000
-1718.220529 -653.538254 440.500000
-1719.109396 -655.329877 440.500000
-1719.998264 -657.121501 440.500000
-1720.887131 -658.913124 440.500000
-1721.775999 -660.704748 440.500000
-1722.664866 -662.496371 440.500000
-1723.553734 -664.287995 440.500000
-1724.442601 -666.079618 440.500000
-1725.331469 -667.871242 440.500000
-1726.220336 -669.662865 440.500000
-1727.109204 -671.454489 440.500000
-1727.998071 -673.246112 440.500000
-1728.886939 -675.037735 440.500000
-1729.775806 -676.829359 440.500000
-1730.664673 -678.620982 440.500000
-1731.553541 -680.412606 440.500000
-1732.442408 -682.204229 440.500000
-1733.331276 -683.995853 440.500000
-1734.220143 -685.787476 440.500000
-1735.109011 -687.579100 440.500000
-1735.997878 -689.370723 440.500000
-1736.886746 -691.162347 440.500000
-1737.775613 -692.953970 440.500000
-1738.664481 -694.745594 440.500000
-1739.553348 -696.537217 440.500000
-1740.442215 -698.328841 440.500000
-1741.331083 -700.120464 440.500000
-1742.219950 -701.912087 440.500000
-1743.108818 -703.703711 440.500000
-1743.997685 -705.495334 440.500000
-1744.886553 -707.286958 440.500000
-1745.775420 -709.078581 440.500000
-1746.664288 -710.870205 440.500000
-1747.553155 -712.661828 440.500000
-1748.442023 -714.453452 440.500000
-1749.330890 -716.245075 440.500000
-1750.219757 -718.036699 440.500000
-1751.108625 -719.828322 440.500000
-1751.997492 -721.619946 440.500000
-1752.886360 -723.411569 440.500000
-1753.775227 -725.203193 440.500000
-1754.664095 -726.994816 440.500000
-1755.552962 -728.786439 440.500000
-1756.441830 -730.578063 440.500000
-1757.330697 -732.369686 440.500000
-1758.219565 -734.161310 440.500000
-1759.108432 -735.952933 440.500000
-1759.997299 -737.744557 440.500000
-1760.886167 -739.536180 440.500000
-1761.775034 -741.327804 440.500000
-1762.663902 -743.119427 440.500000
-1763.552769 -744.911051 440.500000
-1764.441637 -746.702674 440.500000
-1765.330504 -748.494298 440.500000
-1766.219372 -750.285921 440.500000
-1767.108239 -752.077544 440.500000
-1767.997107 -753.869168 440.500000
-1768.885974 -755.660791 440.500000
-1769.774841 -757.452415 440.500000
-1770.663709 -759.244038 440.500000
-1771.552576 -761.035662 440.500000
-1772.441444 -762.827285 440.500000
-1773.330311 -764.618909 440.500000
-1774.219179 -766.410532 440.500000
-1775.108046 -768.202156 440.500000
-1775.996914 -769.993779 440.500000
-1776.885781 -771.785403 440.500000
-1777.774649 -773.577026 440.500000
-1778.663516 -775.368650 440.500000
-1779.552384 -777.160273 440.500000
-1780.441251 -778.951896 440.500000
-1781.330118 -780.743520 440.500000
-1782.218986 -782.535143 440.500000
-1783.107853 -784.326767 440.500000
-1783.996721 -786.118390 440.500000
-1784.885588 -787.910014 440.500000
-1785.774456 -789.701637 440.500000
-1786.663323 -791.493261 440.500000
-1787.552191 -793.284884 440.500000
-1788.441058 -795.076508 440.500000
-1789.329926 -796.868131 440.500000
-1790.218793 -798.659755 440.500000
-1791.107660 -800.451378 440.500000
-1791.996528 -802.243002 440.500000
-1792.885395 -804.034625 440.500000
-1793.774263 -805.826248 440.500000
-1794.663130 -807.617872 440.500000
-1795.551998 -809.409495 440.500000
-1796.440865 -811.201119 440.500000
-1797.329733 -812.992742 440.500000
-1798.218600 -814.784366 440.500000
-1799.107468 -816.575989 440.500000
-1799.996335 -818.367613 440.500000
-1800.885202 -820.159236 440.500000
-1801.774070 -821.950860 440.500000
-1802.662937 -823.742483 440.500000
-1803.551805 -825.534107 440.500000
-1804.440672 -827.325730 440.500000
-1805.329540 -829.117354 440.500000
-1806.218407 -830.908977 440.500000
-1807.107275 -832.700600 440.500000
-1807.996142 -834.492224 440.500000
-1808.885010 -836.283847 440.500000
-1809.773877 -838.075471 440.500000
-1810.662744 -839.867094 440.500000
-1811.551612 -841.658718 440.500000
-1812.440479 -843.450341 440.500000
-1813.329347 -845.241965 440.500000
-1814.218214 -847.033588 440.500000
-1815.107082 -848.825212 440.500000
-1815.995949 -850.616835 440.500000
-1816.884817 -852.408459 440.500000
-1817.773684 -854.200082 440.500000
-1818.662552 -855.991706 440.500000
-1819.551419 -857.783329 440.500000
-1820.440287 -859.574952 440.500000
-1821.329154 -861.366576 440.500000
-1822.218021 -863.158199 440.500000
-1823.106889 -864.949823 440.500000
-1823.995756 -866.741446 440.500000
-1824.884624 -868.533070 440.500000
-1825.773491 -870.324693 440.500000
-1826.662359 -872.116317 440.500000
-1827.551226 -873.907940 440.500000
-1828.440094 -875.699564 440.500000
-1829.328961 -877.491187 440.500000
-1830.217829 -879.282811 440.500000
-1831.106696 -881.074434 440.500000
-1831.995563 -882.866058 440.500000
-1832.884431 -884.657681 440.500000
-1833.773298 -886.449304 440.500000
-1834.662166 -888.240928 440.500000
-1835.551033 -890.032551 440.500000
-1836.439901 -891.824175 440.500000
-1837.328768 -893.615798 440.500000
-1838.217636 -895.407422 440.500000
-1839.106503 -897.199045 440.500000
-1839.995371 -898.990669 440.500000
-1840.884238 -900.782292 440.500000
-1841.773105 -902.573916 440.500000
-1842.661973 -904.365539 440.500000
-1843.550840 -906.157163 440.500000
-1844.439708 -907.948786 440.500000
-1845.328575 -909.740410 440.500000
-1846.217443 -911.532033 440.500000
-1847.106310 -913.323656 440.500000
-1847.995178 -915.115280 440.500000
-1848.884045 -916.906903 440.500000
-1849.772913 -918.698527 440.500000
-1850.661780 -920.490150 440.500000
-1851.550647 -922.281774 440.500000
-1852.439515 -924.073397 440.500000
-1853.328382 -925.865021 440.500000
-1854.217250 -927.656644 440.500000
-1855.106117 -929.448268 440.500000
-1855.994985 -931.239891 440.500000
-1856.883852 -933.031515 440.500000
-1857.772720 -934.823138 440.500000
-1858.661587 -936.614762 440.500000
-1859.550455 -938.406385 440.500000
-1860.439322 -940.198008 440.500000
-1861.328189 -941.989632 440.500000
-1862.217057 -943.781255 440.500000
-1863.105924 -945.572879 440.500000
-1863.994792 -947.364502 440.500000
-1864.883659 -949.156126 440.500000
-1865.772527 -950.947749 440.500000
-1866.661394 -952.739373 440.500000
-1867.550262 -954.530996 440.500000
-1868.439129 -956.322620 440.500000
-1869.327997 -958.114243 440.500000
-1870.216864 -959.905867 440.500000
-1871.105732 -961.697490 440.500000
-1871.994599 -963.489114 440.500000
-1872.883466 -965.280737 440.500000
-1873.772334 -967.072360 440.500000
-1874.661201 -968.863984 440.500000
-1875.550069 -970.655607 440.500000
-1876.438936 -972.447231 440.500000
-1877.327804 -974.238854 440.500000
-1878.216671 -976.030478 440.500000
-1879.105539 -977.822101 440.500000
-1879.994406 -979.613725 440.500000
-1880.883274 -981.405348 440.500000
-1881.772141 -983.196972 440.500000
-1882.661008 -984.988595 440.500000
-1883.549876 -986.780219 440.500000
-1884.438743 -988.571842 440.500000
-1885.327611 -990.363466 440.500000
-1886.216478 -992.155089 440.500000
-1887.105346 -993.946712 440.500000
-1887.994213 -995.738336 440.500000
-1888.883081 -997.529959 440.500000
-1889.771948 -999.321583 440.500000
-1890.660816 -1001.113206 440.500000
-1891.549683 -1002.904830 440.500000
-1892.438550 -1004.696453 440.500000
-1893.327418 -1006.488077 440.500000
-1894.216285 -1008.279700 440.500000
-1895.105153 -1010.071324 440.500000
-1895.994020 -1011.862947 440.500000
-1896.882888 -1013.654571 440.500000
-1897.771755 -1015.446194 440.500000
-1898.660623 -1017.237818 440.500000
-1899.549490 -1019.029441 440.500000
-1900.438358 -1020.821064 440.500000
-1901.327225 -1022.612688 440.500000
-1902.216092 -1024.404311 440.500000
-1903.104960 -1026.195935 440.500000
-1903.993827 -1027.987558 440.500000
-1904.882695 -1029.779182 440.500000
-1905.771562 -1031.570805 440.500000
-1906.660430 -1033.362429 440.500000
-1907.549297 -1035.154052 440.500000
-1908.438165 -1036.945676 440.500000
-1909.327032 -1038.737299 440.500000
-1910.215900 -1040.528923 440.500000
-1911.104767 -1042.320546 440.500000
-1911.993634 -1044.112170 440.500000
-1912.882502 -1045.903793 440.500000
-1913.771369 -1047.695416 440.500000
-1914.660237 -1049.487040 440.500000
-1915.549104 -1051.278663 440.500000
-1916.437972 -1053.070287 440.500000
-1917.326839 -1054.861910 440.500000
-1918.215707 -1056.653534 440.500000
-1919.104574 -1058.445157 440.500000
-1919.993442 -1060.236781 440.500000
-1920.882309 -1062.028404 440.500000
-1921.771177 -1063.820028 440.500000
-1922.660044 -1065.611651 440.500000
-1923.548911 -1067.403275 440.500000
-1924.437779 -1069.194898 440.500000
-1925.326646 -1070.986522 440.500000
-1926.215514 -1072.778145 440.500000
-1927.104381 -1074.569768 440.500000
-1927.993249 -1076.361392 440.500000
-1928.882116 -1078.153015 440.500000
-1929.770984 -1079.944639 440.500000
-1930.659851 -1081.736262 440.500000
-1931.548719 -1083.527886 440.500000
-1932.437586 -1085.319509 440.500000
-1933.326453 -1087.111133 440.500000
-1934.215321 -1088.902756 440.500000
-1935.104188 -1090.694380 440.500000
-1935.993056 -1092.486003 440.500000
-1936.881923 -1094.277627 440.500000
-1937.770791 -1096.069250 440.500000
-1938.659658 -1097.860874 440.500000
-1939.548526 -1099.652497 440.500000
-1940.437393 -1101.444120 440.500000
-1941.326261 -1103.235744 440.500000
-1942.215128 -1105.027367 440.500000
-1943.103995 -1106.818991 440.500000
-1943.992863 -1108.610614 440.500000
-1944.881730 -1110.402238 440.500000
-1945.770598 -1112.193861 440.500000
-1946.659465 -1113.985485 440.500000
-1947.548333 -1115.777108 440.500000
-1948.437200 -1117.568732 440.500000
-1949.326068 -1119.360355 440.500000
-1950.214935 -1121.151979 440.500000
-1951.103803 -1122.943602 440.500000
-1951.992670 -1124.735226 440.500000
-1952.881537 -1126.526849 440.500000
-1953.770405 -1128.318472 440.500000
-1954.659272 -1130.110096 440.500000
-1955.548140 -1131.901719 440.500000
-1956.437007 -1133.693343 440.500000
-1957.325875 -1135.484966 440.500000
-1958.214742 -1137.276590 440.500000
-1959.103610 -1139.068213 440.500000
-1959.992477 -1140.859837 440.500000
-1960.881345 -1142.651460 440.500000
-1961.770212 -1144.443084 440.500000
-1962.659079 -1146.234707 440.500000
-1963.547947 -1148.026331 440.500000
-1964.436814 -1149.817954 440.500000
-1965.325682 -1151.609578 440.500000
-1966.214549 -1153.401201 440.500000
-1967.103417 -1155.192824 440.500000
-1967.992284 -1156.984448 440.500000
-1968.881152 -1158.776071 440.500000
-1969.770019 -1160.567695 440.500000
-1970.658887 -1162.359318 440.500000
-1971.547754 -1164.150942 440.500000
-1972.436622 -1165.942565 440.500000
-1973.325489 -1167.734189 440.500000
-1974.214356 -1169.525812 440.500000
-1975.103224 -1171.317436 440.500000
-1975.992091 -1173.109059 440.500000
-1976.880959 -1174.900683 440.500000
-1977.769826 -1176.692306 440.500000
-1978.658694 -1178.483929 440.500000
-1979.547561 -1180.275553 440.500000
-1980.436429 -1182.067176 440.500000
-1981.325296 -1183.858800 440.500000
-1982.214164 -1185.650423 440.500000
-1983.103031 -1187.442047 440.500000
-1983.991898 -1189.233670 440.500000
-1984.880766 -1191.025294 440.500000
-1985.769633 -1192.816917 440.500000
-1986.658501 -1194.608541 440.500000
-1987.547368 -1196.400164 440.500000
-1988.436236 -1198.191788 440.500000
-1989.325103 -1199.983411 440.500000
-1990.213971 -1201.775035 440.500000
-1991.102838 -1203.566658 440.500000
-1991.991706 -1205.358281 440.500000
-1992.880573 -1207.149905 440.500000
-1993.769440 -1208.941528 440.500000
-1994.658308 -1210.733152 440.500000
-1995.547175 -1212.524775 440.500000
-1996.436043 -1214.316399 440.500000
-1997.324910 -1216.108022 440.500000
-1998.213778 -1217.899646 440.500000
-1999.102645 -1219.691269 440.500000
-1999.991513 -1221.482893 440.500000
-2000.880380 -1223.274516 440.500000
-2001.769248 -1225.066140 440.500000
-2002.658115 -1226.857763 440.500000
-2003.546982 -1228.649387 440.500000
-2004.435850 -1230.441010 440.500000
-2005.324717 -1232.232633 440.500000
-2006.213585 -1234.024257 440.500000
-2007.102452 -1235.815880 440.500000
-2007.991320 -1237.607504 440.500000
-2008.880187 -1239.399127 440.500000
-2009.769055 -1241.190751 440.500000
-2010.657922 -1242.982374 440.500000
-2011.546790 -1244.773998 440.500000
-2012.435657 -1246.565621 440.500000
-2013.324524 -1248.357245 440.500000
-2014.213392 -1250.148868 440.500000
-2015.102259 -1251.940492 440.500000
-2015.991127 -1253.732115 440.500000
-2016.879994 -1255.523739 440.500000
-2017.768862 -1257.315362 440.500000
-2018.657729 -1259.106985 440.500000
-2019.546597 -1260.898609 440.500000
-2020.435464 -1262.690232 440.500000
-2021.324332 -1264.481856 440.500000
-2022.213199 -1266.273479 440.500000
-2023.102067 -1268.065103 440.500000
-2023.990934 -1269.856726 440.500000
-2024.879801 -1271.648350 440.500000
-2025.768669 -1273.439973 440.500000
-2026.657536 -1275.231597 440.500000
-2027.546404 -1277.023220 440.500000
-2028.435271 -1278.814844 440.500000
-2029.324139 -1280.606467 440.500000
-2030.213006 -1282.398091 440.500000
-2031.101874 -1284.189714 440.500000
-2031.990741 -1285.981337 440.500000
-2032.879609 -1287.772961 440.500000
-2033.768476 -1289.564584 440.500000
-2034.657343 -1291.356208 440.500000
-2035.546211 -1293.147831 440.500000
-2036.435078 -1294.939455 440.500000
-2037.323946 -1296.731078 440.500000
-2038.212813 -1298.522702 440.500000
-2039.101681 -1300.314325 440.500000
-2039.990548 -1302.105949 440.500000
-2040.879416 -1303.897572 440.500000
-2041.768283 -1305.689196 440.500000
-2042.657151 -1307.480819 440.500000
-2043.546018 -1309.272443 440.500000
-2044.434885 -1311.064066 440.500000
-2045.323753 -1312.855689 440.500000
-2046.212620 -1314.647313 440.500000
-2047.101488 -1316.438936 440.500000
-2047.990355 -1318.230560 440.500000
-2048.879223 -1320.022183 440.500000
-2049.768090 -1321.813807 440.500000
-2050.656958 -1323.605430 440.500000
-2051.545825 -1325.397054 440.500000
-2052.434693 -1327.188677 440.500000
-2053.323560 -1328.980301 440.500000
-2054.212427 -1330.771924 440.500000
-2055.101295 -1332.563548 440.500000
-2055.990162 -1334.355171 440.500000
-2056.879030 -1336.146795 440.500000
-2057.767897 -1337.938418 440.500000
-2058.656765 -1339.730041 440.500000
-2059.545632 -1341.521665 440.500000
-2060.434500 -1343.313288 440.500000
-2061.323367 -1345.104912 440.500000
-2062.212235 -1346.896535 440.500000
-2063.101102 -1348.688159 440.500000
-2063.989969 -1350.479782 440.500000
-2064.878837 -1352.271406 440.500000
-2065.767704 -1354.063029 440.500000
-2066.656572 -1355.854653 440.500000
-2067.545439 -1357.646276 440.500000
-2068.434307 -1359.437900 440.500000
-2069.323174 -1361.229523 440.500000
-2070.212042 -1363.021147 440.500000
-2071.100909 -1364.812770 440.500000
-2071.989777 -1366.604393 440.500000
-2072.878644 -1368.396017 440.500000
-2073.767512 -1370.187640 440.500000
-2074.656379 -1371.979264 440.500000
-2075.545246 -1373.770887 440.500000
-2076.434114 -1375.562511 440.500000
-2077.322981 -1377.354134 440.500000
-2078.211849 -1379.145758 440.500000
-2079.100716 -1380.937381 440.500000
-2079.989584 -1382.729005 440.500000
-2080.878451 -1384.520628 440.500000
-2081.767319 -1386.312252 440.500000
-2082.656186 -1388.103875 440.500000
-2083.545054 -1389.895499 440.500000
-2084.433921 -1391.687122 440.500000
-2085.322788 -1393.478745 440.500000
-2086.211656 -1395.270369 440.500000
-2087.100523 -1397.061992 440.500000
-2087.989391 -1398.853616 440.500000
-2088.878258 -1400.645239 440.500000
-2089.767126 -1402.436863 440.500000
-2090.655993 -1404.228486 440.500000
-2091.544861 -1406.020110 440.500000
-2092.433728 -1407.811733 440.500000
-2093.322596 -1409.603357 440.500000
-2094.211463 -1411.394980 440.500000
-2095.100330 -1413.186604 440.500000
-2095.989198 -1414.978227 440.500000
-2096.878065 -1416.769851 440.500000
-2097.766933 -1418.561474 440.500000
-2098.655800 -1420.353097 440.500000
-2099.544668 -1422.144721 440.500000
-2100.433535 -1423.936344 440.500000
-2101.322403 -1425.727968 440.500000
-2102.211270 -1427.519591 440.500000
-2103.100138 -1429.311215 440.500000
-2103.989005 -1431.102838 440.500000
-2104.877872 -1432.894462 440.500000
-2105.766740 -1434.686085 440.500000
-2106.655607 -1436.477709 440.500000
-2107.544475 -1438.269332 440.500000
-2108.433342 -1440.060956 440.500000
-2109.322210 -1441.852579 440.500000
-2110.211077 -1443.644203 440.500000
-2111.099945 -1445.435826 440.500000
-2111.988812 -1447.227449 440.500000
-2112.877680 -1449.019073 440.500000
-2113.766547 -1450.810696 440.500000
-2114.655415 -1452.602320 440.500000
-2115.544282 -1454.393943 440.500000
-2116.433149 -1456.185567 440.500000
-2117.322017 -1457.977190 440.500000
-2118.210884 -1459.768814 440.500000
-2119.099752 -1461.560437 440.500000
-2119.988619 -1463.352061 440.500000
-2120.877487 -1465.143684 440.500000
-2121.766354 -1466.935308 440.500000
-2122.655222 -1468.726931 440.500000
-2123.544089 -1470.518555 440.500000
-2124.432957 -1472.310178 440.500000
-2125.321824 -1474.101801 440.500000
-2126.210691 -1475.893425 440.500000
-2127.099559 -1477.685048 440.500000
-2127.988426 -1479.476672 440.500000
-2128.877294 -1481.268295 440.500000
-2129.766161 -1483.059919 440.500000
-2130.655029 -1484.851542 440.500000
-2131.543896 -1486.643166 440.500000
-2132.432764 -1488.434789 440.500000
-2133.321631 -1490.226413 440.500000
-2134.210499 -1492.018036 440.500000
-2135.099366 -1493.809660 440.500000
-2135.988233 -1495.601283 440.500000
-2136.877101 -1497.392907 440.500000
-2137.765968 -1499.184530 440.500000
-2138.654836 -1500.976153 440.500000
-2139.543703 -1502.767777 440.500000
-2140.432571 -1504.559400 440.500000
-2141.321438 -1506.351024 440.500000
-2142.210306 -1508.142647 440.500000
-2143.099173 -1509.934271 440.500000
-2143.988041 -1511.725894 440.500000
-2144.876908 -1513.517518 440.500000
-2145.765775 -1515.309141 440.500000
-2146.654643 -1517.100765 440.500000
-2147.543510 -1518.892388 440.500000
-2148.432378 -1520.684012 440.500000
-2149.321245 -1522.475635 440.500000
-2150.210113 -1524.267259 440.500000
-2151.098980 -1526.058882 440.500000
-2151.987848 -1527.850505 440.500000
-2152.876715 -1529.642129 440.500000
-2153.765583 -1531.433752 440.500000
-2154.654450 -1533.225376 440.500000
-2155.543317 -1535.016999 440.500000
-2156.432185 -1536.808623 440.500000
-2157.321052 -1538.600246 440.500000
-2158.209920 -1540.391870 440.500000
-2159.098787 -1542.183493 440.500000
-2159.987655 -1543.975117 440.500000
-2160.876522 -1545.766740 440.500000
-2161.765390 -1547.558364 440.500000
-2162.654257 -1549.349987 440.500000
-2163.543125 -1551.141611 440.500000
-2164.431992 -1552.933234 440.500000
-2165.320860 -1554.724857 440.500000
-2166.209727 -1556.516481 440.500000
-2167.098594 -1558.308104 440.500000
-2167.987462 -1560.099728 440.500000
-2168.876329 -1561.891351 440.500000
-2169.765197 -1563.682975 440.500000
-2170.654064 -1565.474598 440.500000
-2171.542932 -1567.266222 440.500000
-2172.431799 -1569.057845 440.500000
-2173.320667 -1570.849469 440.500000
-2174.209534 -1572.641092 440.500000
-2175.098402 -1574.432716 440.500000
-2175.987269 -1576.224339 440.500000
-2176.876136 -1578.015963 440.500000
-2177.765004 -1579.807586 440.500000
-2178.653871 -1581.599209 440.500000
-2179.542739 -1583.390833 440.500000
-2180.431606 -1585.182456 440.500000
-2181.320474 -1586.974080 440.500000
-2182.209341 -1588.765703 440.500000
-2183.098209 -1590.557327 440.500000
-2183.987076 -1592.348950 440.500000
-2184.875944 -1594.140574 440.500000
-2185.764811 -1595.932197 440.500000
-2186.653678 -1597.723821 440.500000
-2187.542546 -1599.515444 440.500000
-2188.431413 -1601.307068 440.500000
-2189.320281 -1603.098691 440.500000
-2190.209148 -1604.890314 440.500000
-2191.098016 -1606.681938 440.500000
-2191.986883 -1608.473561 440.500000
-2192.875751 -1610.265185 440.500000
-2193.764618 -1612.056808 440.500000
-2194.653486 -1613.848432 440.500000
-2195.542353 -1615.640055 440.500000
-2196.431220 -1617.431679 440.500000
-2197.320088 -1619.223302 440.500000
-2198.208955 -1621.014926 440.500000
-2199.097823 -1622.806549 440.500000
-2199.986690 -1624.598173 440.500000
-2200.875558 -1626.389796 440.500000
-2201.764425 -1628.181420 440.500000
-2202.653293 -1629.973043 440.500000
-2203.542160 -1631.764666 440.500000
-2204.431028 -1633.556290 440.500000
-2205.319895 -1635.347913 440.500000
-2206.208762 -1637.139537 440.500000
-2207.097630 -1638.931160 440.500000
-2207.986497 -1640.722784 440.500000
-2208.875365 -1642.514407 440.500000
-2209.764232 -1644.306031 440.500000
-2210.653100 -1646.097654 440.500000
-2211.541967 -1647.889278 440.500000
-2212.430835 -1649.680901 440.500000
-2213.319702 -1651.472525 440.500000
-2214.208570 -1653.264148 440.500000
-2215.097437 -1655.055772 440.500000
-2215.986305 -1656.847395 440.500000
-2216.875172 -1658.639018 440.500000
-2217.764039 -1660.430642 440.500000
-2218.652907 -1662.222265 440.500000
-2219.541774 -1664.013889 440.500000
-2220.430642 -1665.805512 440.500000
-2221.319509 -1667.597136 440.500000
-2222.208377 -1669.388759 440.500000
-2223.097244 -1671.180383 440.500000
-2223.986112 -1672.972006 440.500000
-2224.874979 -1674.763630 440.500000
-2225.763847 -1676.555253 440.500000
-2226.652714 -1678.346877 440.500000
-2227.541581 -1680.138500 440.500000
-2228.430449 -1681.930124 440.500000
-2229.319316 -1683.721747 440.500000
-2230.208184 -1685.513370 440.500000
-2231.097051 -1687.304994 440.500000
-2231.985919 -1689.096617 440.500000
-2232.874786 -1690.888241 440.500000
-2233.763654 -1692.679864 440.500000
-2234.652521 -1694.471488 440.500000
-2235.541389 -1696.263111 440.500000
-2236.430256 -1698.054735 440.500000
-2237.319123 -1699.846358 440.500000
-2238.207991 -1701.637982 440.500000
-2239.096858 -1703.429605 440.500000
-2239.985726 -1705.221229 440.500000
-2240.874593 -1707.012852 440.500000
-2241.763461 -1708.804476 440.500000
-2242.652328 -1710.596099 440.500000
-2243.541196 -1712.387722 440.500000
-2244.430063 -1714.179346 440.500000
-2245.318931 -1715.970969 440.500000
-2246.207798 -1717.762593 440.500000
-2247.096665 -1719.554216 440.500000
-2247.985533 -1721.345840 440.500000
-2248.874400 -1723.137463 440.500000
-2249.763268 -1724.929087 440.500000
-2250.652135 -1726.720710 440.500000
-2251.541003 -1728.512334 440.500000
-2252.429870 -1730.303957 440.500000
-2253.318738 -1732.095581 440.500000
-2254.207605 -1733.887204 440.500000
-2255.096473 -1735.678828 440.500000
-2255.985340 -1737.470451 440.500000
-2256.874207 -1739.262074 440.500000
-2257.763075 -1741.053698 440.500000
-2258.651942 -1742.845321 440.500000
-2259.540810 -1744.636945 440.500000
-2260.429677 -1746.428568 440.500000
-2261.318545 -1748.220192 440.500000
-2262.207412 -1750.011815 440.500000
-2263.096280 -1751.803439 440.500000
-2263.985147 -1753.595062 440.500000
-2264.874015 -1755.386686 440.500000
-2265.762882 -1757.178309 440.500000
-2266.651750 -1758.969933 440.500000
-2267.540617 -1760.761556 440.500000
-2268.429484 -1762.553180 440.500000
-2269.318352 -1764.344803 440.500000
-2270.207219 -1766.136426 440.500000
-2271.096087 -1767.928050 440.500000
-2271.984954 -1769.719673 440.500000
-2272.873822 -1771.511297 440.500000
-2273.762689 -1773.302920 440.500000
-2274.651557 -1775.094544 440.500000
-2275.540424 -1776.886167 440.500000
-2276.429292 -1778.677791 440.500000
-2277.318159 -1780.469414 440.500000
-2278.207026 -1782.261038 440.500000
-2279.095894 -1784.052661 440.500000
-2279.984761 -1785.844285 440.500000
-2280.873629 -1787.635908 440.500000
-2281.762496 -1789.427532 440.500000
-2282.651364 -1791.219155 440.500000
-2283.540231 -1793.010778 440.500000
-2284.429099 -1794.802402 440.500000
-2285.317966 -1796.594025 440.500000
-2286.206834 -1798.385649 440.500000
-2287.095701 -1800.177272 440.500000
-2287.984568 -1801.968896 440.500000
-2288.873436 -1803.760519 440.500000
-2289.762303 -1805.552143 440.500000
-2290.651171 -1807.343766 440.500000
-2291.540038 -1809.135390 440.500000
-2292.428906 -1810.927013 440.500000
-2293.317773 -1812.718637 440.500000
-2294.206641 -1814.510260 440.500000
-2295.095508 -1816.301884 440.500000
-2295.984376 -1818.093507 440.500000
-2296.873243 -1819.885130 440.500000
-2297.762110 -1821.676754 440.500000
-2298.650978 -1823.468377 440.500000
-2299.539845 -1825.260001 440.500000
-2300.428713 -1827.051624 440.500000
-2301.317580 -1828.843248 440.500000
-2302.206448 -1830.634871 440.500000
-2303.095315 -1832.426495 440.500000
-2303.984183 -1834.218118 440.500000
-2304.873050 -1836.009742 440.500000
-2305.761918 -1837.801365 440.500000
-2306.650785 -1839.592989 440.500000
-2307.539652 -1841.384612 440.500000
-2308.428520 -1843.176236 440.500000
-2309.317387 -1844.967859 440.500000
-2310.206255 -1846.759482 440.500000
-2311.095122 -1848.551106 440.500000
-2311.983990 -1850.342729 440.500000
-2312.872857 -1852.134353 440.500000
-2313.761725 -1853.925976 440.500000
-2314.650592 -1855.717600 440.500000
-2315.539460 -1857.509223 440.500000
-2316.428327 -1859.300847 440.500000
-2317.317195 -1861.092470 440.500000
-2318.206062 -1862.884094 440.500000
-2319.094929 -1864.675717 440.500000
-2319.983797 -1866.467341 440.500000
-2320.872664 -1868.258964 440.500000
-2321.761532 -1870.050588 440.500000
-2322.650399 -1871.842211 440.500000
-2323.539267 -1873.633834 440.500000
-2324.428134 -1875.425458 440.500000
-2325.317002 -1877.217081 440.500000
-2326.205869 -1879.008705 440.500000
-2327.094737 -1880.800328 440.500000
-2327.983604 -1882.591952 440.500000
-2328.872471 -1884.383575 440.500000
-2329.761339 -1886.175199 440.500000
-2330.650206 -1887.966822 440.500000
-2331.539074 -1889.758446 440.500000
-2332.427941 -1891.550069 440.500000
-2333.316809 -1893.341693 440.500000
-2334.205676 -1895.133316 440.500000
-2335.094544 -1896.924940 440.500000
-2335.983411 -1898.716563 440.500000
-2336.872279 -1900.508186 440.500000
-2337.761146 -1902.299810 440.500000
-2338.650013 -1904.091433 440.500000
-2339.538881 -1905.883057 440.500000
-2340.427748 -1907.674680 440.500000
-2341.316616 -1909.466304 440.500000
-2342.205483 -1911.257927 440.500000
-2343.094351 -1913.049551 440.500000
-2343.983218 -1914.841174 440.500000
-2344.872086 -1916.632798 440.500000
-2345.760953 -1918.424421 440.500000
-2346.649821 -1920.216045 440.500000
-2347.538688 -1922.007668 440.500000
-2348.427555 -1923.799292 440.500000
-2349.316423 -1925.590915 440.500000
-2350.205290 -1927.382538 440.500000
-2351.094158 -1929.174162 440.500000
-2351.983025 -1930.965785 440.500000
-2352.871893 -1932.757409 440.500000
-2353.760760 -1934.549032 440.500000
-2354.649628 -1936.340656 440.500000
-2355.538495 -1938.132279 440.500000
-2356.427363 -1939.923903 440.500000
-2357.316230 -1941.715526 440.500000
-2358.205097 -1943.507150 440.500000
-2359.093965 -1945.298773 440.500000
-2359.982832 -1947.090397 440.500000
-2360.871700 -1948.882020 440.500000
-2361.760567 -1950.673644 440.500000
-2362.649435 -1952.465267 440.500000
-2363.538302 -1954.256890 440.500000
-2364.427170 -1956.048514 440.500000
-2365.316037 -1957.840137 440.500000
-2366.204905 -1959.631761 440.500000
-2367.093772 -1961.423384 440.500000
-2367.982640 -1963.215008 440.500000
-2368.871507 -1965.006631 440.500000
-2369.760374 -1966.798255 440.500000
-2370.649242 -1968.589878 440.500000
-2371.538109 -1970.381502 440.500000
-2372.426977 -1972.173125 440.500000
-2373.315844 -1973.964749 440.500000
-2374.204712 -1975.756372 440.500000
-2375.093579 -1977.547996 440.500000
-2375.982447 -1979.339619 440.500000
-2376.871314 -1981.131242 440.500000
-2377.760182 -1982.922866 440.500000
-2378.649049 -1984.714489 440.500000
-2379.537916 -1986.506113 440.500000
-2380.426784 -1988.297736 440.500000
-2381.315651 -1990.089360 440.500000
-2382.204519 -1991.880983 440.500000
-2383.093386 -1993.672607 440.500000
-2383.982254 -1995.464230 440.500000
-2384.871121 -1997.255854 440.500000
-2385.759989 -1999.047477 440.500000
-2386.648856 -2000.839101 440.500000
-2387.537724 -2002.630724 440.500000
-2388.426591 -2004.422348 440.500000
-2389.315458 -2006.213971 440.500000
-2390.204326 -2008.005594 440.500000
-2391.093193 -2009.797218 440.500000
-2391.982061 -2011.588841 440.500000
-2392.870928 -2013.380465 440.500000
-2393.759796 -2015.172088 440.500000
-2394.648663 -2016.963712 440.500000
-2395.537531 -2018.755335 440.500000
-2396.426398 -2020.546959 440.500000
-2397.315266 -2022.338582 440.500000
-2398.204133 -2024.130206 440.500000
-2399.093000 -2025.921829 440.500000
-2399.981868 -2027.713453 440.500000
-2400.870735 -2029.505076 440.500000
-2401.759603 -2031.296699 440.500000
-2402.648470 -2033.088323 440.500000
-2403.537338 -2034.879946 440.500000
-2404.426205 -2036.671570 440.500000
-2405.315073 -2038.463193 440.500000
-2406.203940 -2040.254817 440.500000
-2407.092808 -2042.046440 440.500000
-2407.981675 -2043.838064 440.500000
-2408.870543 -2045.629687 440.500000
-2409.759410 -2047.421311 440.500000
-2410.648277 -2049.212934 440.500000
-2411.537145 -2051.004558 440.500000
-2412.426012 -2052.796181 440.500000
-2413.314880 -2054.587805 440.500000
-2414.203747 -2056.379428 440.500000
-2415.092615 -2058.171051 440.500000
-2415.981482 -2059.962675 440.500000
-2416.870350 -2061.754298 440.500000
-2417.759217 -2063.545922 440.500000
-2418.648085 -2065.337545 440.500000
-2419.536952 -2067.129169 440.500000
-2420.425819 -2068.920792 440.500000
-2421.314687 -2070.712416 440.500000
-2422.203554 -2072.504039 440.500000
-2423.092422 -2074.295663 440.500000
-2423.981289 -2076.087286 440.500000
-2424.870157 -2077.878910 440.500000
-2425.759024 -2079.670533 440.500000
