-1776.000000 -267.964518 9.869159
-1776.000000 -269.904127 9.381393
-1776.000000 -271.843736 8.893627
-1776.000000 -273.783346 8.405861
-1776.000000 -275.722955 7.918095
-1776.000000 -277.662564 7.430330
-1776.000000 -279.602174 6.942564
-1776.000000 -281.541783 6.454798
-1776.000000 -283.481392 5.967032
-1776.000000 -285.421002 5.479266
-1776.000000 -287.360611 4.991500
-1776.000000 -289.300220 4.503734
-1776.000000 -291.239830 4.015968
-1776.000000 -293.179439 3.528202
-1776.000000 -295.119049 3.040436
-1776.000000 -297.058658 2.552670
-1776.000000 -298.998267 2.064904
-1776.000000 -300.937877 1.577138
-1776.000000 -302.877486 1.089372
-1776.000000 -304.817095 0.601606
-1776.000000 -306.756705 0.113841
-1776.000000 -308.696314 -0.373925
-1776.000000 -310.635923 -0.861691
-1776.000000 -312.575533 -1.349457
-1776.000000 -314.515142 -1.837223
-1776.000000 -316.454751 -2.324989
-1776.000000 -318.394361 -2.812755
-1776.000000 -320.333970 -3.300521
-1776.000000 -322.273579 -3.788287
-1776.000000 -324.213189 -4.276053
-1776.000000 -326.152798 -4.763819
-1776.000000 -328.092407 -5.251585
-1776.000000 -330.032017 -5.739351
-1776.000000 -331.971626 -6.227117
-1776.000000 -333.911235 -6.714883
-1776.000000 -335.850845 -7.202648
-1776.000000 -337.790454 -7.690414
-1776.000000 -339.730063 -8.178180
-1776.000000 -341.669673 -8.665946
-1776.000000 -343.609282 -9.153712
-1776.000000 -345.548891 -9.641478
-1776.000000 -347.488501 -10.129244
-1776.000000 -349.428110 -10.617010
-1776.000000 -351.367719 -11.104776
-1776.000000 -353.307329 -11.592542
-1776.000000 -355.246938 -12.080308
-1776.000000 -357.186547 -12.568074
-1776.000000 -359.126157 -13.055840
-1776.000000 -361.065766 -13.543606
-1776.000000 -363.005375 -14.031371
-1776.000000 -364.944985 -14.519137
-1776.000000 -366.884594 -15.006903
-1776.000000 -368.824203 -15.494669
-1776.000000 -370.763813 -15.982435
-1776.000000 -372.703422 -16.470201
-1776.000000 -374.643031 -16.957967
-1776.000000 -376.582641 -17.445733
-1776.000000 -378.522250 -17.933499
-1776.000000 -380.461860 -18.421265
-1776.000000 -382.401469 -18.909031
-1776.000000 -384.341078 -19.396797
-1776.000000 -386.280688 -19.884563
-1776.000000 -388.220297 -20.372329
-1776.000000 -390.159906 -20.860095
-1776.000000 -392.099516 -21.347860
-1776.000000 -394.039125 -21.835626
-1776.000000 -395.978734 -22.323392
-1776.000000 -397.918344 -22.811158
-1776.000000 -399.857953 -23.298924
-1776.000000 -401.797562 -23.786690
-1776.000000 -403.737172 -24.274456
-1776.000000 -405.676781 -24.762222
-1776.000000 -407.616390 -25.249988
-1776.000000 -409.556000 -25.737754
-1776.000000 -411.495609 -26.225520
-1776.000000 -413.435218 -26.713286
-1776.000000 -415.374828 -27.201052
-1776.000000 -417.314437 -27.688818
-1776.000000 -419.254046 -28.176584
-1776.000000 -421.193656 -28.664349
-1776.000000 -423.133265 -29.152115
-1776.000000 -425.072874 -29.639881
-1776.000000 -427.012484 -30.127647
-1776.000000 -428.952093 -30.615413
-1776.000000 -430.891702 -31.103179
-1776.000000 -432.831312 -31.590945
-1776.000000 -434.770921 -32.078711
-1776.000000 -436.710530 -32.566477
-1776.000000 -438.650140 -33.054243
-1776.000000 -440.589749 -33.542009
-1776.000000 -442.529358 -34.029775
-1776.000000 -444.468968 -34.517541
-1776.000000 -446.408577 -35.005307
-1776.000000 -448.348186 -35.493072
-1776.000000 -450.287796 -35.980838
-1776.000000 -452.227405 -36.468604
-1776.000000 -454.167014 -36.956370
-1776.000000 -456.106624 -37.444136
-1776.000000 -458.046233 -37.931902
-1776.000000 -459.985842 -38.419668
-1776.000000 -461.925452 -38.907434
-1776.000000 -463.865061 -39.395200
-1776.000000 -465.804671 -39.882966
-1776.000000 -467.744280 -40.370732
-1776.000000 -469.683889 -40.858498
-1776.000000 -471.623499 -41.346264
-1776.000000 -473.563108 -41.834030
-1776.000000 -475.502717 -42.321796
-1776.000000 -477.442327 -42.809561
-1776.000000 -479.381936 -43.297327
-1776.000000 -481.321545 -43.785093
-1776.000000 -483.261155 -44.272859
-1776.000000 -485.200764 -44.760625
-1776.000000 -487.140373 -45.248391
-1776.000000 -489.079983 -45.736157
-1776.000000 -491.019592 -46.223923
-1776.000000 -492.959201 -46.711689
-1776.000000 -494.898811 -47.199455
-1776.000000 -496.838420 -47.687221
-1776.000000 -498.778029 -48.174987
-1776.000000 -500.717639 -48.662753
-1776.000000 -502.657248 -49.150519
-1776.000000 -504.596857 -49.638284
-1776.000000 -506.536467 -50.126050
-1776.000000 -508.476076 -50.613816
-1776.000000 -512.000000 -51.500000
-1776.933050 -513.723550 -51.101510
-1777.866099 -515.447100 -50.703020
-1778.799149 -517.170650 -50.304530
-1779.732198 -518.894200 -49.906040
-1780.665248 -520.617750 -49.507550
-1781.598297 -522.341299 -49.109060
-1782.531347 -524.064849 -48.710571
-1783.464397 -525.788399 -48.312081
-1784.397446 -527.511949 -47.913591
-1785.330496 -529.235499 -47.515101
-1786.263545 -530.959049 -47.116611
-1787.196595 -532.682599 -46.718121
-1788.129644 -534.406149 -46.319631
-1789.062694 -536.129699 -45.921141
-1789.995744 -537.853249 -45.522651
-1790.928793 -539.576798 -45.124161
-1791.861843 -541.300348 -44.725671
-1792.794892 -543.023898 -44.327181
-1793.727942 -544.747448 -43.928691
-1794.660991 -546.470998 -43.530202
-1795.594041 -548.194548 -43.131712
-1796.527091 -549.918098 -42.733222
-1797.460140 -551.641648 -42.334732
-1798.393190 -553.365198 -41.936242
-1799.326239 -555.088748 -41.537752
-1800.259289 -556.812298 -41.139262
-1801.192338 -558.535847 -40.740772
-1802.125388 -560.259397 -40.342282
-1803.058438 -561.982947 -39.943792
-1803.991487 -563.706497 -39.545302
-1804.924537 -565.430047 -39.146812
-1805.857586 -567.153597 -38.748323
-1806.790636 -568.877147 -38.349833
-1807.723685 -570.600697 -37.951343
-1808.656735 -572.324247 -37.552853
-1809.589785 -574.047797 -37.154363
-1810.522834 -575.771347 -36.755873
-1811.455884 -577.494896 -36.357383
-1812.388933 -579.218446 -35.958893
-1813.321983 -580.941996 -35.560403
-1814.255032 -582.665546 -35.161913
-1815.188082 -584.389096 -34.763423
-1816.121132 -586.112646 -34.364933
-1817.054181 -587.836196 -33.966443
-1817.987231 -589.559746 -33.567954
-1818.920280 -591.283296 -33.169464
-1819.853330 -593.006846 -32.770974
-1820.786379 -594.730395 -32.372484
-1821.719429 -596.453945 -31.973994
-1822.652479 -598.177495 -31.575504
-1823.585528 -599.901045 -31.177014
-1824.518578 -601.624595 -30.778524
-1825.451627 -603.348145 -30.380034
-1826.384677 -605.071695 -29.981544
-1827.317727 -606.795245 -29.583054
-1828.250776 -608.518795 -29.184564
-1829.183826 -610.242345 -28.786074
-1830.116875 -611.965895 -28.387585
-1831.049925 -613.689444 -27.989095
-1831.982974 -615.412994 -27.590605
-1832.916024 -617.136544 -27.192115
-1833.849074 -618.860094 -26.793625
-1834.782123 -620.583644 -26.395135
-1835.715173 -622.307194 -25.996645
-1836.648222 -624.030744 -25.598155
-1837.581272 -625.754294 -25.199665
-1838.514321 -627.477844 -24.801175
-1839.447371 -629.201394 -24.402685
-1840.380421 -630.924943 -24.004195
-1841.313470 -632.648493 -23.605705
-1842.246520 -634.372043 -23.207216
-1843.179569 -636.095593 -22.808726
-1844.112619 -637.819143 -22.410236
-1845.045668 -639.542693 -22.011746
-1845.978718 -641.266243 -21.613256
-1846.911768 -642.989793 -21.214766
-1847.844817 -644.713343 -20.816276
-1848.777867 -646.436893 -20.417786
-1849.710916 -648.160443 -20.019296
-1850.643966 -649.883992 -19.620806
-1851.577015 -651.607542 -19.222316
-1852.510065 -653.331092 -18.823826
-1853.443115 -655.054642 -18.425336
-1854.376164 -656.778192 -18.026847
-1855.309214 -658.501742 -17.628357
-1856.242263 -660.225292 -17.229867
-1857.175313 -661.948842 -16.831377
-1858.108362 -663.672392 -16.432887
-1859.041412 -665.395942 -16.034397
-1859.974462 -667.119491 -15.635907
-1860.907511 -668.843041 -15.237417
-1861.840561 -670.566591 -14.838927
-1862.773610 -672.290141 -14.440437
-1863.706660 -674.013691 -14.041947
-1864.639709 -675.737241 -13.643457
-1865.572759 -677.460791 -13.244968
-1866.505809 -679.184341 -12.846478
-1867.438858 -680.907891 -12.447988
-1868.371908 -682.631441 -12.049498
-1869.304957 -684.354991 -11.651008
-1870.238007 -686.078540 -11.252518
-1871.171056 -687.802090 -10.854028
-1872.104106 -689.525640 -10.455538
-1873.037156 -691.249190 -10.057048
-1873.970205 -692.972740 -9.658558
-1874.903255 -694.696290 -9.260068
-1875.836304 -696.419840 -8.861578
-1876.769354 -698.143390 -8.463088
-1877.702403 -699.866940 -8.064599
-1878.635453 -701.590490 -7.666109
-1879.568503 -703.314040 -7.267619
-1880.501552 -705.037589 -6.869129
-1881.434602 -706.761139 -6.470639
-1882.367651 -708.484689 -6.072149
-1883.300701 -710.208239 -5.673659
-1884.233750 -711.931789 -5.275169
-1885.166800 -713.655339 -4.876679
-1886.099850 -715.378889 -4.478189
-1887.032899 -717.102439 -4.079699
-1887.965949 -718.825989 -3.681209
-1888.898998 -720.549539 -3.282719
-1889.832048 -722.273088 -2.884230
-1890.765097 -723.996638 -2.485740
-1891.698147 -725.720188 -2.087250
-1892.631197 -727.443738 -1.688760
-1893.564246 -729.167288 -1.290270
-1894.497296 -730.890838 -0.891780
-1895.430345 -732.614388 -0.493290
-1896.363395 -734.337938 -0.094800
-1897.296444 -736.061488 0.303690
-1898.229494 -737.785038 0.702180
-1899.162544 -739.508588 1.100670
-1900.095593 -741.232137 1.499160
-1901.028643 -742.955687 1.897650
-1901.961692 -744.679237 2.296139
-1902.894742 -746.402787 2.694629
-1903.827791 -748.126337 3.093119
-1904.760841 -749.849887 3.491609
-1905.693891 -751.573437 3.890099
-1906.626940 -753.296987 4.288589
-1907.559990 -755.020537 4.687079
-1908.493039 -756.744087 5.085569
-1909.426089 -758.467636 5.484059
-1910.359138 -760.191186 5.882549
-1911.292188 -761.914736 6.281039
-1912.225238 -763.638286 6.679529
-1913.158287 -765.361836 7.078018
-1914.091337 -767.085386 7.476508
-1915.024386 -768.808936 7.874998
-1915.957436 -770.532486 8.273488
-1916.890486 -772.256036 8.671978
-1917.823535 -773.979586 9.070468
-1918.756585 -775.703136 9.468958
-1919.689634 -777.426685 9.867448
-1920.622684 -779.150235 10.265938
-1921.555733 -780.873785 10.664428
-1922.488783 -782.597335 11.062918
-1923.421833 -784.320885 11.461408
-1924.354882 -786.044435 11.859898
-1925.287932 -787.767985 12.258387
-1926.220981 -789.491535 12.656877
-1927.154031 -791.215085 13.055367
-1928.087080 -792.938635 13.453857
-1929.020130 -794.662185 13.852347
-1929.953180 -796.385734 14.250837
-1930.886229 -798.109284 14.649327
-1931.819279 -799.832834 15.047817
-1932.752328 -801.556384 15.446307
-1933.685378 -803.279934 15.844797
-1934.618427 -805.003484 16.243287
-1935.551477 -806.727034 16.641777
-1936.484527 -808.450584 17.040267
-1937.417576 -810.174134 17.438756
-1938.350626 -811.897684 17.837246
-1939.283675 -813.621233 18.235736
-1940.216725 -815.344783 18.634226
-1941.149774 -817.068333 19.032716
-1942.082824 -818.791883 19.431206
-1943.015874 -820.515433 19.829696
-1943.948923 -822.238983 20.228186
-1944.881973 -823.962533 20.626676
-1945.815022 -825.686083 21.025166
-1946.748072 -827.409633 21.423656
-1947.681121 -829.133183 21.822146
-1948.614171 -830.856733 22.220636
-1949.547221 -832.580282 22.619125
-1950.480270 -834.303832 23.017615
-1951.413320 -836.027382 23.416105
-1952.346369 -837.750932 23.814595
-1953.279419 -839.474482 24.213085
-1954.212468 -841.198032 24.611575
-1955.145518 -842.921582 25.010065
-1956.078568 -844.645132 25.408555
-1957.011617 -846.368682 25.807045
-1957.944667 -848.092232 26.205535
-1958.877716 -849.815781 26.604025
-1959.810766 -851.539331 27.002515
-1960.743815 -853.262881 27.401005
-1961.676865 -854.986431 27.799494
-1962.609915 -856.709981 28.197984
-1963.542964 -858.433531 28.596474
-1964.476014 -860.157081 28.994964
-1965.409063 -861.880631 29.393454
-1966.342113 -863.604181 29.791944
-1967.275162 -865.327731 30.190434
-1968.208212 -867.051281 30.588924
-1969.141262 -868.774830 30.987414
-1970.074311 -870.498380 31.385904
-1971.007361 -872.221930 31.784394
-1971.940410 -873.945480 32.182884
-1972.873460 -875.669030 32.581373
-1973.806509 -877.392580 32.979863
-1974.739559 -879.116130 33.378353
-1975.672609 -880.839680 33.776843
-1976.605658 -882.563230 34.175333
-1977.538708 -884.286780 34.573823
-1978.471757 -886.010329 34.972313
-1979.404807 -887.733879 35.370803
-1980.337856 -889.457429 35.769293
-1981.270906 -891.180979 36.167783
-1982.203956 -892.904529 36.566273
-1983.137005 -894.628079 36.964763
-1984.070055 -896.351629 37.363253
-1985.003104 -898.075179 37.761742
-1985.936154 -899.798729 38.160232
-1986.869203 -901.522279 38.558722
-1987.802253 -903.245829 38.957212
-1988.735303 -904.969378 39.355702
-1989.668352 -906.692928 39.754192
-1990.601402 -908.416478 40.152682
-1991.534451 -910.140028 40.551172
-1992.467501 -911.863578 40.949662
-1993.400550 -913.587128 41.348152
-1994.333600 -915.310678 41.746642
-1995.266650 -917.034228 42.145132
-1996.199699 -918.757778 42.543622
-1997.132749 -920.481328 42.942111
-1998.065798 -922.204878 43.340601
-1998.998848 -923.928427 43.739091
-1999.931897 -925.651977 44.137581
-2000.864947 -927.375527 44.536071
-2001.797997 -929.099077 44.934561
-2002.731046 -930.822627 45.333051
-2003.664096 -932.546177 45.731541
-2004.597145 -934.269727 46.130031
-2005.530195 -935.993277 46.528521
-2006.463245 -937.716827 46.927011
-2007.396294 -939.440377 47.325501
-2008.329344 -941.163926 47.723991
-2009.262393 -942.887476 48.122480
-2010.195443 -944.611026 48.520970
-2011.128492 -946.334576 48.919460
-2012.061542 -948.058126 49.317950
-2012.994592 -949.781676 49.716440
-2013.927641 -951.505226 50.114930
-2014.860691 -953.228776 50.513420
-2015.793740 -954.952326 50.911910
-2016.726790 -956.675876 51.310400
-2017.659839 -958.399426 51.708890
-2018.592889 -960.122975 52.107380
-2019.525939 -961.846525 52.505870
-2020.458988 -963.570075 52.904360
-2021.392038 -965.293625 53.302849
-2022.325087 -967.017175 53.701339
-2023.258137 -968.740725 54.099829
-2024.191186 -970.464275 54.498319
-2025.124236 -972.187825 54.896809
-2026.057286 -973.911375 55.295299
-2026.990335 -975.634925 55.693789
-2027.923385 -977.358474 56.092279
-2028.856434 -979.082024 56.490769
-2029.789484 -980.805574 56.889259
-2030.722533 -982.529124 57.287749
-2031.655583 -984.252674 57.686239
-2032.588633 -985.976224 58.084728
-2033.521682 -987.699774 58.483218
-2034.454732 -989.423324 58.881708
-2035.387781 -991.146874 59.280198
-2036.320831 -992.870424 59.678688
-2037.253880 -994.593974 60.077178
-2038.186930 -996.317523 60.475668
-2039.119980 -998.041073 60.874158
-2040.053029 -999.764623 61.272648
-2040.986079 -1001.488173 61.671138
-2041.919128 -1003.211723 62.069628
-2042.852178 -1004.935273 62.468118
-2043.785227 -1006.658823 62.866608
-2044.718277 -1008.382373 63.265097
-2045.651327 -1010.105923 63.663587
-2046.584376 -1011.829473 64.062077
-2047.517426 -1013.553023 64.460567
-2048.450475 -1015.276572 64.859057
-2049.383525 -1017.000122 65.257547
-2050.316574 -1018.723672 65.656037
-2051.249624 -1020.447222 66.054527
-2052.182674 -1022.170772 66.453017
-2053.115723 -1023.894322 66.851507
-2054.048773 -1025.617872 67.249997
-2054.981822 -1027.341422 67.648487
-2055.914872 -1029.064972 68.046977
-2056.847921 -1030.788522 68.445466
-2057.780971 -1032.512071 68.843956
-2058.714021 -1034.235621 69.242446
-2059.647070 -1035.959171 69.640936
-2060.580120 -1037.682721 70.039426
-2061.513169 -1039.406271 70.437916
-2062.446219 -1041.129821 70.836406
-2063.379268 -1042.853371 71.234896
-2064.312318 -1044.576921 71.633386
-2065.245368 -1046.300471 72.031876
-2066.178417 -1048.024021 72.430366
-2067.111467 -1049.747571 72.828856
-2068.044516 -1051.471120 73.227346
-2068.977566 -1053.194670 73.625835
-2069.910615 -1054.918220 74.024325
-2070.843665 -1056.641770 74.422815
-2071.776715 -1058.365320 74.821305
-2072.709764 -1060.088870 75.219795
-2073.642814 -1061.812420 75.618285
-2074.575863 -1063.535970 76.016775
-2075.508913 -1065.259520 76.415265
-2076.441962 -1066.983070 76.813755
-2077.375012 -1068.706619 77.212245
-2078.308062 -1070.430169 77.610735
-2079.241111 -1072.153719 78.009225
-2080.174161 -1073.877269 78.407714
-2081.107210 -1075.600819 78.806204
-2082.040260 -1077.324369 79.204694
-2082.973309 -1079.047919 79.603184
-2083.906359 -1080.771469 80.001674
-2084.839409 -1082.495019 80.400164
-2085.772458 -1084.218569 80.798654
-2086.705508 -1085.942119 81.197144
-2087.638557 -1087.665668 81.595634
-2088.571607 -1089.389218 81.994124
-2089.504656 -1091.112768 82.392614
-2090.437706 -1092.836318 82.791104
-2091.370756 -1094.559868 83.189594
-2092.303805 -1096.283418 83.588083
-2093.236855 -1098.006968 83.986573
-2094.169904 -1099.730518 84.385063
-2095.102954 -1101.454068 84.783553
-2096.036004 -1103.177618 85.182043
-2096.969053 -1104.901167 85.580533
-2097.902103 -1106.624717 85.979023
-2098.835152 -1108.348267 86.377513
-2099.768202 -1110.071817 86.776003
-2100.701251 -1111.795367 87.174493
-2101.634301 -1113.518917 87.572983
-2102.567351 -1115.242467 87.971473
-2103.500400 -1116.966017 88.369963
-2104.433450 -1118.689567 88.768452
-2105.366499 -1120.413117 89.166942
-2106.299549 -1122.136667 89.565432
-2107.232598 -1123.860216 89.963922
-2108.165648 -1125.583766 90.362412
-2109.098698 -1127.307316 90.760902
-2110.031747 -1129.030866 91.159392
-2110.964797 -1130.754416 91.557882
-2111.897846 -1132.477966 91.956372
-2112.830896 -1134.201516 92.354862
-2113.763945 -1135.925066 92.753352
-2114.696995 -1137.648616 93.151842
-2115.630045 -1139.372166 93.550332
-2116.563094 -1141.095716 93.948821
-2117.496144 -1142.819265 94.347311
-2118.429193 -1144.542815 94.745801
-2119.362243 -1146.266365 95.144291
-2120.295292 -1147.989915 95.542781
-2121.228342 -1149.713465 95.941271
-2122.161392 -1151.437015 96.339761
-2123.094441 -1153.160565 96.738251
-2124.027491 -1154.884115 97.136741
-2124.960540 -1156.607665 97.535231
-2125.893590 -1158.331215 97.933721
-2126.826639 -1160.054764 98.332211
-2127.759689 -1161.778314 98.730701
-2128.692739 -1163.501864 99.129190
-2129.625788 -1165.225414 99.527680
-2130.558838 -1166.948964 99.926170
-2131.491887 -1168.672514 100.324660
-2132.424937 -1170.396064 100.723150
-2133.357986 -1172.119614 101.121640
-2134.291036 -1173.843164 101.520130
-2135.224086 -1175.566714 101.918620
-2136.157135 -1177.290264 102.317110
-2137.090185 -1179.013813 102.715600
-2138.023234 -1180.737363 103.114090
-2138.956284 -1182.460913 103.512580
-2139.889333 -1184.184463 103.911069
-2140.822383 -1185.908013 104.309559
-2141.755433 -1187.631563 104.708049
-2142.688482 -1189.355113 105.106539
-2143.621532 -1191.078663 105.505029
-2144.554581 -1192.802213 105.903519
-2145.487631 -1194.525763 106.302009
-2146.420680 -1196.249312 106.700499
-2147.353730 -1197.972862 107.098989
-2148.286780 -1199.696412 107.497479
-2149.219829 -1201.419962 107.895969
-2150.152879 -1203.143512 108.294459
-2151.085928 -1204.867062 108.692949
-2152.018978 -1206.590612 109.091438
-2152.952027 -1208.314162 109.489928
-2153.885077 -1210.037712 109.888418
-2154.818127 -1211.761262 110.286908
-2155.751176 -1213.484812 110.685398
-2156.684226 -1215.208361 111.083888
-2157.617275 -1216.931911 111.482378
-2158.550325 -1218.655461 111.880868
-2159.483374 -1220.379011 112.279358
-2160.416424 -1222.102561 112.677848
-2161.349474 -1223.826111 113.076338
-2162.282523 -1225.549661 113.474828
-2163.215573 -1227.273211 113.873318
-2164.148622 -1228.996761 114.271807
-2165.081672 -1230.720311 114.670297
-2166.014721 -1232.443861 115.068787
-2166.947771 -1234.167410 115.467277
-2167.880821 -1235.890960 115.865767
-2168.813870 -1237.614510 116.264257
-2169.746920 -1239.338060 116.662747
-2170.679969 -1241.061610 117.061237
-2171.613019 -1242.785160 117.459727
-2172.546068 -1244.508710 117.858217
-2173.479118 -1246.232260 118.256707
-2174.412168 -1247.955810 118.655197
-2175.345217 -1249.679360 119.053687
-2176.278267 -1251.402909 119.452176
-2177.211316 -1253.126459 119.850666
-2178.144366 -1254.850009 120.249156
-2179.077415 -1256.573559 120.647646
-2180.010465 -1258.297109 121.046136
-2180.943515 -1260.020659 121.444626
-2181.876564 -1261.744209 121.843116
-2182.809614 -1263.467759 122.241606
-2183.742663 -1265.191309 122.640096
-2184.675713 -1266.914859 123.038586
-2185.608763 -1268.638409 123.437076
-2186.541812 -1270.361958 123.835566
-2187.474862 -1272.085508 124.234055
-2188.407911 -1273.809058 124.632545
-2189.340961 -1275.532608 125.031035
-2190.274010 -1277.256158 125.429525
-2191.207060 -1278.979708 125.828015
-2192.140110 -1280.703258 126.226505
-2193.073159 -1282.426808 126.624995
-2194.006209 -1284.150358 127.023485
-2194.939258 -1285.873908 127.421975
-2195.872308 -1287.597457 127.820465
-2196.805357 -1289.321007 128.218955
-2197.738407 -1291.044557 128.617445
-2198.671457 -1292.768107 129.015935
-2199.604506 -1294.491657 129.414424
-2200.537556 -1296.215207 129.812914
-2201.470605 -1297.938757 130.211404
-2202.403655 -1299.662307 130.609894
-2203.336704 -1301.385857 131.008384
-2204.269754 -1303.109407 131.406874
-2205.202804 -1304.832957 131.805364
-2206.135853 -1306.556506 132.203854
-2207.068903 -1308.280056 132.602344
-2208.001952 -1310.003606 133.000834
-2208.935002 -1311.727156 133.399324
-2209.868051 -1313.450706 133.797814
-2210.801101 -1315.174256 134.196304
-2211.734151 -1316.897806 134.594793
-2212.667200 -1318.621356 134.993283
-2213.600250 -1320.344906 135.391773
-2214.533299 -1322.068456 135.790263
-2215.466349 -1323.792005 136.188753
-2216.399398 -1325.515555 136.587243
-2217.332448 -1327.239105 136.985733
-2218.265498 -1328.962655 137.384223
-2219.198547 -1330.686205 137.782713
-2220.131597 -1332.409755 138.181203
-2221.064646 -1334.133305 138.579693
-2221.997696 -1335.856855 138.978183
-2222.930745 -1337.580405 139.376673
-2223.863795 -1339.303955 139.775162
-2224.796845 -1341.027505 140.173652
-2225.729894 -1342.751054 140.572142
-2226.662944 -1344.474604 140.970632
-2227.595993 -1346.198154 141.369122
-2228.529043 -1347.921704 141.767612
-2229.462092 -1349.645254 142.166102
-2230.395142 -1351.368804 142.564592
-2231.328192 -1353.092354 142.963082
-2232.261241 -1354.815904 143.361572
-2233.194291 -1356.539454 143.760062
-2234.127340 -1358.263004 144.158552
-2235.060390 -1359.986554 144.557042
-2235.993439 -1361.710103 144.955531
-2236.926489 -1363.433653 145.354021
-2237.859539 -1365.157203 145.752511
-2238.792588 -1366.880753 146.151001
-2239.725638 -1368.604303 146.549491
-2240.658687 -1370.327853 146.947981
-2241.591737 -1372.051403 147.346471
-2242.524786 -1373.774953 147.744961
-2243.457836 -1375.498503 148.143451
-2244.390886 -1377.222053 148.541941
-2245.323935 -1378.945602 148.940431
-2246.256985 -1380.669152 149.338921
-2247.190034 -1382.392702 149.737410
-2248.123084 -1384.116252 150.135900
-2249.056133 -1385.839802 150.534390
-2249.989183 -1387.563352 150.932880
-2250.922233 -1389.286902 151.331370
-2251.855282 -1391.010452 151.729860
-2252.788332 -1392.734002 152.128350
-2253.721381 -1394.457552 152.526840
-2254.654431 -1396.181102 152.925330
-2255.587480 -1397.904651 153.323820
-2256.520530 -1399.628201 153.722310
-2257.453580 -1401.351751 154.120800
-2258.386629 -1403.075301 154.519290
-2259.319679 -1404.798851 154.917779
-2260.252728 -1406.522401 155.316269
-2261.185778 -1408.245951 155.714759
-2262.118827 -1409.969501 156.113249
-2263.051877 -1411.693051 156.511739
-2263.984927 -1413.416601 156.910229
-2264.917976 -1415.140150 157.308719
-2265.851026 -1416.863700 157.707209
-2266.784075 -1418.587250 158.105699
-2267.717125 -1420.310800 158.504189
-2268.650174 -1422.034350 158.902679
-2269.583224 -1423.757900 159.301169
-2270.516274 -1425.481450 159.699659
-2271.449323 -1427.205000 160.098148
-2272.382373 -1428.928550 160.496638
-2273.315422 -1430.652100 160.895128
-2274.248472 -1432.375650 161.293618
-2275.181522 -1434.099199 161.692108
-2276.114571 -1435.822749 162.090598
-2277.047621 -1437.546299 162.489088
-2277.980670 -1439.269849 162.887578
-2278.913720 -1440.993399 163.286068
-2279.846769 -1442.716949 163.684558
-2280.779819 -1444.440499 164.083048
-2281.712869 -1446.164049 164.481538
-2282.645918 -1447.887599 164.880028
-2283.578968 -1449.611149 165.278517
-2284.512017 -1451.334698 165.677007
-2285.445067 -1453.058248 166.075497
-2286.378116 -1454.781798 166.473987
-2287.311166 -1456.505348 166.872477
-2288.244216 -1458.228898 167.270967
-2289.177265 -1459.952448 167.669457
-2290.110315 -1461.675998 168.067947
-2291.043364 -1463.399548 168.466437
-2291.976414 -1465.123098 168.864927
-2292.909463 -1466.846648 169.263417
-2293.842513 -1468.570198 169.661907
-2294.775563 -1470.293747 170.060396
-2295.708612 -1472.017297 170.458886
-2296.641662 -1473.740847 170.857376
-2297.574711 -1475.464397 171.255866
-2298.507761 -1477.187947 171.654356
-2299.440810 -1478.911497 172.052846
-2300.373860 -1480.635047 172.451336
-2301.306910 -1482.358597 172.849826
-2302.239959 -1484.082147 173.248316
-2303.173009 -1485.805697 173.646806
-2304.106058 -1487.529247 174.045296
-2305.039108 -1489.252796 174.443786
-2305.972157 -1490.976346 174.842276
-2306.905207 -1492.699896 175.240765
-2307.838257 -1494.423446 175.639255
-2308.771306 -1496.146996 176.037745
-2309.704356 -1497.870546 176.436235
-2310.637405 -1499.594096 176.834725
-2311.570455 -1501.317646 177.233215
-2312.503504 -1503.041196 177.631705
-2313.436554 -1504.764746 178.030195
-2314.369604 -1506.488295 178.428685
-2315.302653 -1508.211845 178.827175
-2316.235703 -1509.935395 179.225665
-2317.168752 -1511.658945 179.624155
-2318.101802 -1513.382495 180.022645
-2319.034851 -1515.106045 180.421134
-2319.967901 -1516.829595 180.819624
-2320.900951 -1518.553145 181.218114
-2321.834000 -1520.276695 181.616604
-2322.767050 -1522.000245 182.015094
-2323.700099 -1523.723795 182.413584
-2324.633149 -1525.447344 182.812074
-2325.566198 -1527.170894 183.210564
-2326.499248 -1528.894444 183.609054
-2327.432298 -1530.617994 184.007544
-2328.365347 -1532.341544 184.406034
-2329.298397 -1534.065094 184.804524
-2330.231446 -1535.788644 185.203014
-2331.164496 -1537.512194 185.601503
-2332.097545 -1539.235744 185.999993
-2333.030595 -1540.959294 186.398483
-2333.963645 -1542.682843 186.796973
-2334.896694 -1544.406393 187.195463
-2335.829744 -1546.129943 187.593953
-2336.762793 -1547.853493 187.992443
-2337.695843 -1549.577043 188.390933
-2338.628892 -1551.300593 188.789423
-2339.561942 -1553.024143 189.187913
-2340.494992 -1554.747693 189.586403
-2341.428041 -1556.471243 189.984893
-2342.361091 -1558.194793 190.383383
-2343.294140 -1559.918343 190.781872
-2344.227190 -1561.641892 191.180362
-2345.160239 -1563.365442 191.578852
-2346.093289 -1565.088992 191.977342
-2347.026339 -1566.812542 192.375832
-2347.959388 -1568.536092 192.774322
-2348.892438 -1570.259642 193.172812
-2349.825487 -1571.983192 193.571302
-2350.758537 -1573.706742 193.969792
-2351.691586 -1575.430292 194.368282
-2352.624636 -1577.153842 194.766772
-2353.557686 -1578.877392 195.165262
-2354.490735 -1580.600941 195.563751
-2355.423785 -1582.324491 195.962241
-2356.356834 -1584.048041 196.360731
-2357.289884 -1585.771591 196.759221
-2358.222933 -1587.495141 197.157711
-2359.155983 -1589.218691 197.556201
-2360.089033 -1590.942241 197.954691
-2361.022082 -1592.665791 198.353181
-2361.955132 -1594.389341 198.751671
-2362.888181 -1596.112891 199.150161
-2363.821231 -1597.836440 199.548651
-2364.754281 -1599.559990 199.947141
-2365.687330 -1601.283540 200.345631
-2366.620380 -1603.007090 200.744120
-2367.553429 -1604.730640 201.142610
-2368.486479 -1606.454190 201.541100
-2369.419528 -1608.177740 201.939590
-2370.352578 -1609.901290 202.338080
-2371.285628 -1611.624840 202.736570
-2372.218677 -1613.348390 203.135060
-2373.151727 -1615.071940 203.533550
-2374.084776 -1616.795489 203.932040
-2375.017826 -1618.519039 204.330530
-2375.950875 -1620.242589 204.729020
-2376.883925 -1621.966139 205.127510
-2377.816975 -1623.689689 205.526000
-2378.750024 -1625.413239 205.924489
-2379.683074 -1627.136789 206.322979
-2380.616123 -1628.860339 206.721469
-2381.549173 -1630.583889 207.119959
-2382.482222 -1632.307439 207.518449
-2383.415272 -1634.030988 207.916939
-2384.348322 -1635.754538 208.315429
-2385.281371 -1637.478088 208.713919
-2386.214421 -1639.201638 209.112409
-2387.147470 -1640.925188 209.510899
-2388.080520 -1642.648738 209.909389
-2389.013569 -1644.372288 210.307879
-2389.946619 -1646.095838 210.706369
-2390.879669 -1647.819388 211.104858
-2391.812718 -1649.542938 211.503348
-2392.745768 -1651.266488 211.901838
-2393.678817 -1652.990037 212.300328
-2394.611867 -1654.713587 212.698818
-2395.544916 -1656.437137 213.097308
-2396.477966 -1658.160687 213.495798
-2397.411016 -1659.884237 213.894288
-2398.344065 -1661.607787 214.292778
-2399.277115 -1663.331337 214.691268
-2400.210164 -1665.054887 215.089758
-2401.143214 -1666.778437 215.488248
-2402.076263 -1668.501987 215.886738
-2403.009313 -1670.225536 216.285227
-2403.942363 -1671.949086 216.683717
-2404.875412 -1673.672636 217.082207
-2405.808462 -1675.396186 217.480697
-2406.741511 -1677.119736 217.879187
-2407.674561 -1678.843286 218.277677
-2408.607610 -1680.566836 218.676167
-2409.540660 -1682.290386 219.074657
-2410.473710 -1684.013936 219.473147
-2411.406759 -1685.737486 219.871637
-2412.339809 -1687.461036 220.270127
-2413.272858 -1689.184585 220.668617
-2414.205908 -1690.908135 221.067106
-2415.138957 -1692.631685 221.465596
-2416.072007 -1694.355235 221.864086
-2417.005057 -1696.078785 222.262576
-2417.938106 -1697.802335 222.661066
-2418.871156 -1699.525885 223.059556
-2419.804205 -1701.249435 223.458046
-2420.737255 -1702.972985 223.856536
-2421.670304 -1704.696535 224.255026
-2422.603354 -1706.420085 224.653516
-2423.536404 -1708.143634 225.052006
-2424.469453 -1709.867184 225.450496
-2425.402503 -1711.590734 225.848986
-2426.335552 -1713.314284 226.247475
-2427.268602 -1715.037834 226.645965
-2428.201651 -1716.761384 227.044455
-2429.134701 -1718.484934 227.442945
-2430.067751 -1720.208484 227.841435
-2431.000800 -1721.932034 228.239925
-2431.933850 -1723.655584 228.638415
-2432.866899 -1725.379133 229.036905
-2433.799949 -1727.102683 229.435395
-2434.732998 -1728.826233 229.833885
-2435.666048 -1730.549783 230.232375
-2436.599098 -1732.273333 230.630865
-2437.532147 -1733.996883 231.029355
-2438.465197 -1735.720433 231.427844
-2439.398246 -1737.443983 231.826334
-2440.331296 -1739.167533 232.224824
-2441.264345 -1740.891083 232.623314
-2442.197395 -1742.614633 233.021804
-2443.130445 -1744.338182 233.420294
-2444.063494 -1746.061732 233.818784
-2444.996544 -1747.785282 234.217274
-2445.929593 -1749.508832 234.615764
-2446.862643 -1751.232382 235.014254
-2447.795692 -1752.955932 235.412744
-2448.728742 -1754.679482 235.811234
-2449.661792 -1756.403032 236.209724
-2450.594841 -1758.126582 236.608213
-2451.527891 -1759.850132 237.006703
-2452.460940 -1761.573681 237.405193
-2453.393990 -1763.297231 237.803683
-2454.327040 -1765.020781 238.202173
-2455.260089 -1766.744331 238.600663
-2456.193139 -1768.467881 238.999153
-2457.126188 -1770.191431 239.397643
-2458.059238 -1771.914981 239.796133
-2458.992287 -1773.638531 240.194623
-2459.925337 -1775.362081 240.593113
-2460.858387 -1777.085631 240.991603
-2461.791436 -1778.809181 241.390092
-2462.724486 -1780.532730 241.788582
-2463.657535 -1782.256280 242.187072
-2464.590585 -1783.979830 242.585562
-2465.523634 -1785.703380 242.984052
-2466.456684 -1787.426930 243.382542
-2467.389734 -1789.150480 243.781032
-2468.322783 -1790.874030 244.179522
-2469.255833 -1792.597580 244.578012
-2470.188882 -1794.321130 244.976502
-2471.121932 -1796.044680 245.374992
-2472.054981 -1797.768230 245.773482
-2472.988031 -1799.491779 246.171972
-2473.921081 -1801.215329 246.570461
-2474.854130 -1802.938879 246.968951
-2475.787180 -1804.662429 247.367441
-2476.720229 -1806.385979 247.765931
-2477.653279 -1808.109529 248.164421
-2478.586328 -1809.833079 248.562911
-2479.519378 -1811.556629 248.961401
-2480.452428 -1813.280179 249.359891
-2481.385477 -1815.003729 249.758381
-2482.318527 -1816.727278 250.156871
-2483.251576 -1818.450828 250.555361
-2484.184626 -1820.174378 250.953851
-2485.117675 -1821.897928 251.352341
-2486.050725 -1823.621478 251.750830
-2486.983775 -1825.345028 252.149320
-2487.916824 -1827.068578 252.547810
-2488.849874 -1828.792128 252.946300
-2489.782923 -1830.515678 253.344790
-2490.715973 -1832.239228 253.743280
-2491.649022 -1833.962778 254.141770
-2492.582072 -1835.686327 254.540260
-2493.515122 -1837.409877 254.938750
-2494.448171 -1839.133427 255.337240
-2495.381221 -1840.856977 255.735730
-2496.314270 -1842.580527 256.134220
-2497.247320 -1844.304077 256.532710
-2498.180369 -1846.027627 256.931199
-2499.113419 -1847.751177 257.329689
-2500.046469 -1849.474727 257.728179
-2500.979518 -1851.198277 258.126669
-2501.912568 -1852.921826 258.525159
-2502.845617 -1854.645376 258.923649
-2503.778667 -1856.368926 259.322139
-2504.711716 -1858.092476 259.720629
-2505.644766 -1859.816026 260.119119
-2506.577816 -1861.539576 260.517609
-2507.510865 -1863.263126 260.916099
-2508.443915 -1864.986676 261.314589
-2509.376964 -1866.710226 261.713079
-2510.310014 -1868.433776 262.111568
-2511.243063 -1870.157326 262.510058
-2512.176113 -1871.880875 262.908548
-2513.109163 -1873.604425 263.307038
-2514.042212 -1875.327975 263.705528
-2514.975262 -1877.051525 264.104018
-2515.908311 -1878.775075 264.502508
-2516.841361 -1880.498625 264.900998
-2517.774410 -1882.222175 265.299488
-2518.707460 -1883.945725 265.697978
-2519.640510 -1885.669275 266.096468
-2520.573559 -1887.392825 266.494958
-2521.506609 -1889.116374 266.893447
-2522.439658 -1890.839924 267.291937
-2523.372708 -1892.563474 267.690427
-2524.305757 -1894.287024 268.088917
-2525.238807 -1896.010574 268.487407
-2526.171857 -1897.734124 268.885897
-2527.104906 -1899.457674 269.284387
-2528.037956 -1901.181224 269.682877
-2528.971005 -1902.904774 270.081367
-2529.904055 -1904.628324 270.479857
-2530.837104 -1906.351874 270.878347
-2531.770154 -1908.075423 271.276837
-2532.703204 -1909.798973 271.675327
-2533.636253 -1911.522523 272.073816
-2534.569303 -1913.246073 272.472306
-2535.502352 -1914.969623 272.870796
-2536.435402 -1916.693173 273.269286
-2537.368451 -1918.416723 273.667776
-2538.301501 -1920.140273 274.066266
-2539.234551 -1921.863823 274.464756
-2540.167600 -1923.587373 274.863246
-2541.100650 -1925.310923 275.261736
-2542.033699 -1927.034472 275.660226
-2542.966749 -1928.758022 276.058716
-2543.899798 -1930.481572 276.457206
-2544.832848 -1932.205122 276.855696
-2545.765898 -1933.928672 277.254185
-2546.698947 -1935.652222 277.652675
-2547.631997 -1937.375772 278.051165
-2548.565046 -1939.099322 278.449655
-2549.498096 -1940.822872 278.848145
-2550.431146 -1942.546422 279.246635
-2551.364195 -1944.269971 279.645125
-2552.297245 -1945.993521 280.043615
-2553.230294 -1947.717071 280.442105
-2554.163344 -1949.440621 280.840595
-2555.096393 -1951.164171 281.239085
-2556.029443 -1952.887721 281.637575
-2556.962493 -1954.611271 282.036065
-2557.895542 -1956.334821 282.434554
-2558.828592 -1958.058371 282.833044
-2559.761641 -1959.781921 283.231534
-2560.694691 -1961.505471 283.630024
-2561.627740 -1963.229020 284.028514
-2562.560790 -1964.952570 284.427004
-2563.493840 -1966.676120 284.825494
-2564.426889 -1968.399670 285.223984
-2565.359939 -1970.123220 285.622474
-2566.292988 -1971.846770 286.020964
-2567.226038 -1973.570320 286.419454
-2568.159087 -1975.293870 286.817944
-2569.092137 -1977.017420 287.216433
-2570.025187 -1978.740970 287.614923
-2570.958236 -1980.464519 288.013413
-2571.891286 -1982.188069 288.411903
-2572.824335 -1983.911619 288.810393
-2573.757385 -1985.635169 289.208883
-2574.690434 -1987.358719 289.607373
-2575.623484 -1989.082269 290.005863
-2576.556534 -1990.805819 290.404353
-2577.489583 -1992.529369 290.802843
-2578.422633 -1994.252919 291.201333
-2579.355682 -1995.976469 291.599823
-2580.288732 -1997.700019 291.998313
-2581.221781 -1999.423568 292.396802
-2582.154831 -2001.147118 292.795292
-2583.087881 -2002.870668 293.193782
-2584.020930 -2004.594218 293.592272
-2584.953980 -2006.317768 293.990762
-2585.887029 -2008.041318 294.389252
-2586.820079 -2009.764868 294.787742
-2587.753128 -2011.488418 295.186232
-2588.686178 -2013.211968 295.584722
-2589.619228 -2014.935518 295.983212
-2590.552277 -2016.659068 296.381702
-2591.485327 -2018.382617 296.780192
-2592.418376 -2020.106167 297.178682
-2593.351426 -2021.829717 297.577171
-2594.284475 -2023.553267 297.975661
-2595.217525 -2025.276817 298.374151
-2596.150575 -2027.000367 298.772641
-2597.083624 -2028.723917 299.171131
-2598.016674 -2030.447467 299.569621
-2598.949723 -2032.171017 299.968111
-2599.882773 -2033.894567 300.366601
-2600.815822 -2035.618116 300.765091
-2601.748872 -2037.341666 301.163581
-2602.681922 -2039.065216 301.562071
-2603.614971 -2040.788766 301.960561
-2604.548021 -2042.512316 302.359051
-2605.481070 -2044.235866 302.757540
-2606.414120 -2045.959416 303.156030
-2607.347169 -2047.682966 303.554520
-2608.280219 -2049.406516 303.953010
-2609.213269 -2051.130066 304.351500
-2610.146318 -2052.853616 304.749990
-2611.079368 -2054.577165 305.148480
-2612.012417 -2056.300715 305.546970
-2612.945467 -2058.024265 305.945460
-2613.878516 -2059.747815 306.343950
-2614.811566 -2061.471365 306.742440
-2615.744616 -2063.194915 307.140930
-2616.677665 -2064.918465 307.539420
-2617.610715 -2066.642015 307.937909
-2618.543764 -2068.365565 308.336399
-2619.476814 -2070.089115 308.734889
-2620.409863 -2071.812664 309.133379
-2621.342913 -2073.536214 309.531869
-2622.275963 -2075.259764 309.930359
-2623.209012 -2076.983314 310.328849
-2624.142062 -2078.706864 310.727339
-2625.075111 -2080.430414 311.125829
-2626.008161 -2082.153964 311.524319
-2626.941210 -2083.877514 311.922809
-2627.874260 -2085.601064 312.321299
-2628.807310 -2087.324614 312.719788
-2629.740359 -2089.048164 313.118278
-2630.673409 -2090.771713 313.516768
-2631.606458 -2092.495263 313.915258
-2632.539508 -2094.218813 314.313748
-2633.472557 -2095.942363 314.712238
-2634.405607 -2097.665913 315.110728
-2635.338657 -2099.389463 315.509218
-2636.271706 -2101.113013 315.907708
-2637.204756 -2102.836563 316.306198
-2638.137805 -2104.560113 316.704688
-2639.070855 -2106.283663 317.103178
-2640.003905 -2108.007212 317.501668
-2640.936954 -2109.730762 317.900157
-2641.870004 -2111.454312 318.298647
-2642.803053 -2113.177862 318.697137
-2643.736103 -2114.901412 319.095627
-2644.669152 -2116.624962 319.494117
-2645.602202 -2118.348512 319.892607
-2646.535252 -2120.072062 320.291097
-2647.468301 -2121.795612 320.689587
-2648.401351 -2123.519162 321.088077
-2649.334400 -2125.242712 321.486567
-2650.267450 -2126.966261 321.885057
-2651.200499 -2128.689811 322.283547
-2652.133549 -2130.413361 322.682037
-2653.066599 -2132.136911 323.080526
-2653.999648 -2133.860461 323.479016
-2654.932698 -2135.584011 323.877506
-2655.865747 -2137.307561 324.275996
-2656.798797 -2139.031111 324.674486
-2657.731846 -2140.754661 325.072976
-2658.664896 -2142.478211 325.471466
-2659.597946 -2144.201761 325.869956
-2660.530995 -2145.925310 326.268446
-2661.464045 -2147.648860 326.666936
-2662.397094 -2149.372410 327.065426
-2663.330144 -2151.095960 327.463916
-2664.263193 -2152.819510 327.862406
-2665.196243 -2154.543060 328.260895
-2666.129293 -2156.266610 328.659385
-2667.062342 -2157.990160 329.057875
-2667.995392 -2159.713710 329.456365
-2668.928441 -2161.437260 329.854855
-2669.861491 -2163.160809 330.253345
-2670.794540 -2164.884359 330.651835
-2671.727590 -2166.607909 331.050325
-2672.660640 -2168.331459 331.448815
-2673.593689 -2170.055009 331.847305
-2674.526739 -2171.778559 332.245795
-2675.459788 -2173.502109 332.644285
-2676.392838 -2175.225659 333.042774
-2677.325887 -2176.949209 333.441264
-2678.258937 -2178.672759 333.839754
-2679.191987 -2180.396309 334.238244
-2680.125036 -2182.119858 334.636734
-2681.058086 -2183.843408 335.035224
-2681.991135 -2185.566958 335.433714
-2682.924185 -2187.290508 335.832204
-2683.857234 -2189.014058 336.230694
-2684.790284 -2190.737608 336.629184
-2685.723334 -2192.461158 337.027674
-2686.656383 -2194.184708 337.426164
-2687.589433 -2195.908258 337.824654
-2688.522482 -2197.631808 338.223143
-2689.455532 -2199.355357 338.621633
-2690.388581 -2201.078907 339.020123
-2691.321631 -2202.802457 339.418613
-2692.254681 -2204.526007 339.817103
-2693.187730 -2206.249557 340.215593
-2694.120780 -2207.973107 340.614083
-2695.053829 -2209.696657 341.012573
-2695.986879 -2211.420207 341.411063
-2696.919928 -2213.143757 341.809553
-2697.852978 -2214.867307 342.208043
-2698.786028 -2216.590857 342.606533
-2699.719077 -2218.314406 343.005023
-2700.652127 -2220.037956 343.403512
-2701.585176 -2221.761506 343.802002
-2702.518226 -2223.485056 344.200492
-2703.451275 -2225.208606 344.598982
-2704.384325 -2226.932156 344.997472
-2705.317375 -2228.655706 345.395962
-2706.250424 -2230.379256 345.794452
-2707.183474 -2232.102806 346.192942
-2708.116523 -2233.826356 346.591432
-2709.049573 -2235.549906 346.989922
-2709.982622 -2237.273455 347.388412
-2710.915672 -2238.997005 347.786902
-2711.848722 -2240.720555 348.185392
-2712.781771 -2242.444105 348.583881
-2713.714821 -2244.167655 348.982371
-2714.647870 -2245.891205 349.380861
-2715.580920 -2247.614755 349.779351
-2716.513969 -2249.338305 350.177841
-2717.447019 -2251.061855 350.576331
-2718.380069 -2252.785405 350.974821
-2719.313118 -2254.508954 351.373311
-2720.246168 -2256.232504 351.771801
-2721.179217 -2257.956054 352.170291
-2722.112267 -2259.679604 352.568781
-2723.045316 -2261.403154 352.967271
-2723.978366 -2263.126704 353.365761
-2724.911416 -2264.850254 353.764250
-2725.844465 -2266.573804 354.162740
-2726.777515 -2268.297354 354.561230
-2727.710564 -2270.020904 354.959720
-2728.643614 -2271.744454 355.358210
-2729.576664 -2273.468003 355.756700
-2730.509713 -2275.191553 356.155190
-2731.442763 -2276.915103 356.553680
-2732.375812 -2278.638653 356.952170
-2733.308862 -2280.362203 357.350660
-2734.241911 -2282.085753 357.749150
-2735.174961 -2283.809303 358.147640
-2736.108011 -2285.532853 358.546129
-2737.041060 -2287.256403 358.944619
-2737.974110 -2288.979953 359.343109
-2738.907159 -2290.703502 359.741599
-2739.840209 -2292.427052 360.140089
-2740.773258 -2294.150602 360.538579
-2741.706308 -2295.874152 360.937069
-2742.639358 -2297.597702 361.335559
-2743.572407 -2299.321252 361.734049
-2744.505457 -2301.044802 362.132539
-2745.438506 -2302.768352 362.531029
-2746.371556 -2304.491902 362.929519
-2747.304605 -2306.215452 363.328009
-2748.237655 -2307.939002 363.726498
-2749.170705 -2309.662551 364.124988
-2750.103754 -2311.386101 364.523478
-2751.036804 -2313.109651 364.921968
-2751.969853 -2314.833201 365.320458
-2752.902903 -2316.556751 365.718948
-2753.835952 -2318.280301 366.117438
-2754.769002 -2320.003851 366.515928
-2755.702052 -2321.727401 366.914418
-2756.635101 -2323.450951 367.312908
-2757.568151 -2325.174501 367.711398
-2758.501200 -2326.898050 368.109888
-2759.434250 -2328.621600 368.508378
-2760.367299 -2330.345150 368.906867
-2761.300349 -2332.068700 369.305357
-2762.233399 -2333.792250 369.703847
-2763.166448 -2335.515800 370.102337
-2764.099498 -2337.239350 370.500827
-2765.032547 -2338.962900 370.899317
-2765.965597 -2340.686450 371.297807
-2766.898646 -2342.410000 371.696297
-2767.831696 -2344.133550 372.094787
-2768.764746 -2345.857099 372.493277
-2769.697795 -2347.580649 372.891767
-2770.630845 -2349.304199 373.290257
-2771.563894 -2351.027749 373.688747
-2772.496944 -2352.751299 374.087236
-2773.429993 -2354.474849 374.485726
-2774.363043 -2356.198399 374.884216
-2775.296093 -2357.921949 375.282706
-2776.229142 -2359.645499 375.681196
-2777.162192 -2361.369049 376.079686
-2778.095241 -2363.092599 376.478176
-2779.028291 -2364.816148 376.876666
-2779.961340 -2366.539698 377.275156
-2780.894390 -2368.263248 377.673646
-2781.827440 -2369.986798 378.072136
-2782.760489 -2371.710348 378.470626
-2783.693539 -2373.433898 378.869116
-2784.626588 -2375.157448 379.267605
-2785.559638 -2376.880998 379.666095
-2786.492687 -2378.604548 380.064585
-2787.425737 -2380.328098 380.463075
-2788.358787 -2382.051647 380.861565
-2789.291836 -2383.775197 381.260055
-2790.224886 -2385.498747 381.658545
-2791.157935 -2387.222297 382.057035
-2792.090985 -2388.945847 382.455525
-2793.024034 -2390.669397 382.854015
-2793.957084 -2392.392947 383.252505
-2794.890134 -2394.116497 383.650995
-2795.823183 -2395.840047 384.049484
-2796.756233 -2397.563597 384.447974
-2797.689282 -2399.287147 384.846464
-2798.622332 -2401.010696 385.244954
-2799.555381 -2402.734246 385.643444
-2800.488431 -2404.457796 386.041934
-2801.421481 -2406.181346 386.440424
-2802.354530 -2407.904896 386.838914
-2803.287580 -2409.628446 387.237404
-2804.220629 -2411.351996 387.635894
-2805.153679 -2413.075546 388.034384
-2806.086728 -2414.799096 388.432874
-2807.019778 -2416.522646 388.831364
-2807.952828 -2418.246195 389.229853
-2808.885877 -2419.969745 389.628343
-2809.818927 -2421.693295 390.026833
-2810.751976 -2423.416845 390.425323
-2811.685026 -2425.140395 390.823813
-2812.618075 -2426.863945 391.222303
-2813.551125 -2428.587495 391.620793
-2814.484175 -2430.311045 392.019283
-2815.417224 -2432.034595 392.417773
-2816.350274 -2433.758145 392.816263
-2817.283323 -2435.481695 393.214753
-2818.216373 -2437.205244 393.613243
-2819.149423 -2438.928794 394.011733
-2820.082472 -2440.652344 394.410222
-2821.015522 -2442.375894 394.808712
-2821.948571 -2444.099444 395.207202
-2822.881621 -2445.822994 395.605692
-2823.814670 -2447.546544 396.004182
-2824.747720 -2449.270094 396.402672
-2825.680770 -2450.993644 396.801162
-2826.613819 -2452.717194 397.199652
-2827.546869 -2454.440744 397.598142
-2828.479918 -2456.164293 397.996632
-2829.412968 -2457.887843 398.395122
-2830.346017 -2459.611393 398.793612
-2831.279067 -2461.334943 399.192102
-2832.212117 -2463.058493 399.590591
-2833.145166 -2464.782043 399.989081
-2834.078216 -2466.505593 400.387571
-2835.011265 -2468.229143 400.786061
-2835.944315 -2469.952693 401.184551
-2836.877364 -2471.676243 401.583041
-2837.810414 -2473.399792 401.981531
-2838.743464 -2475.123342 402.380021
-2839.676513 -2476.846892 402.778511
-2840.609563 -2478.570442 403.177001
-2841.542612 -2480.293992 403.575491
-2842.475662 -2482.017542 403.973981
-2843.408711 -2483.741092 404.372470
-2844.341761 -2485.464642 404.770960
-2845.274811 -2487.188192 405.169450
-2846.207860 -2488.911742 405.567940
-2847.140910 -2490.635292 405.966430
-2848.073959 -2492.358841 406.364920
-2849.007009 -2494.082391 406.763410
-2849.940058 -2495.805941 407.161900
-2850.873108 -2497.529491 407.560390
-2851.806158 -2499.253041 407.958880
-2852.739207 -2500.976591 408.357370
-2853.672257 -2502.700141 408.755860
-2854.605306 -2504.423691 409.154350
-2855.538356 -2506.147241 409.552839
-2856.471405 -2507.870791 409.951329
-2857.404455 -2509.594340 410.349819
-2858.337505 -2511.317890 410.748309
-2859.270554 -2513.041440 411.146799
-2860.203604 -2514.764990 411.545289
-2861.136653 -2516.488540 411.943779
-2862.069703 -2518.212090 412.342269
-2863.002752 -2519.935640 412.740759
-2863.935802 -2521.659190 413.139249
-2864.868852 -2523.382740 413.537739
-2865.801901 -2525.106290 413.936229
-2866.734951 -2526.829840 414.334719
-2867.668000 -2528.553389 414.733208
-2868.601050 -2530.276939 415.131698
-2869.534099 -2532.000489 415.530188
-2870.467149 -2533.724039 415.928678
-2871.400199 -2535.447589 416.327168
-2872.333248 -2537.171139 416.725658
-2873.266298 -2538.894689 417.124148
-2874.199347 -2540.618239 417.522638
-2875.132397 -2542.341789 417.921128
-2876.065446 -2544.065339 418.319618
-2876.998496 -2545.788888 418.718108
-2877.931546 -2547.512438 419.116598
-2878.864595 -2549.235988 419.515088
-2879.797645 -2550.959538 419.913577
-2880.730694 -2552.683088 420.312067
-2881.663744 -2554.406638 420.710557
-2882.596793 -2556.130188 421.109047
-2883.529843 -2557.853738 421.507537
-2884.462893 -2559.577288 421.906027
-2885.395942 -2561.300838 422.304517
-2886.328992 -2563.024388 422.703007
-2887.262041 -2564.747937 423.101497
-2888.195091 -2566.471487 423.499987
